ncols        35
nrows        35
xllcorner    73.53333333332749
yllcorner    69.73749999999417
cellsize     0.004166666667
NODATA_value -32767
-4 -4 -4 -4 -4 -3 -3 -3 -3 -3 -3 -3 -3 -3 -3 -3 -3 -2 -2 -2 -2 -2 -2 -2 -2 -1 -1 0 0 0 0 0 4 10 19
-4 -4 -4 -4 -4 -3 -3 -3 -3 -3 -3 -3 -3 -3 -3 -3 -3 -2 -2 -2 -2 -2 -2 -2 -2 -2 -1 -1 0 0 0 0 1 9 20
-4 -4 -4 -4 -4 -3 -3 -3 -3 -3 -3 -3 -3 -3 -3 -3 -3 -2 -2 -2 -2 -2 -2 -2 -2 -2 -1 -1 0 0 0 0 0 2 14
-4 -4 -4 -4 -4 -3 -3 -3 -3 -3 -3 -3 -3 -3 -3 -3 -3 -2 -2 -2 -2 -2 -2 -2 -2 -1 -1 -1 -1 0 0 0 0 0 3
-4 -4 -4 -4 -3 -3 -3 -3 -3 -3 -3 -3 -3 -3 -3 -3 -2 -2 -2 -2 -2 -2 -2 -2 -2 -1 -1 -1 -1 0 0 0 0 0 1
-4 -4 -4 -4 -3 -3 -3 -3 -3 -3 -3 -3 -3 -3 -3 -2 -2 -2 -2 -2 -2 -2 -2 -2 -1 -1 -1 -1 0 0 0 0 0 0 1
-4 -4 -4 -3 -3 -3 -3 -3 -3 -3 -3 -3 -3 -3 -3 -2 -2 -2 -2 -2 -2 -2 -2 -1 -1 -1 -1 -1 0 0 0 0 0 1 4
-4 -4 -3 -3 -3 -3 -3 -3 -3 -3 -3 -3 -3 -3 -2 -2 -2 -2 -2 -2 -2 -2 -1 -1 -1 -1 -1 0 0 0 0 0 0 1 6
-4 -4 -3 -3 -3 -3 -3 -3 -3 -3 -3 -3 -3 -2 -2 -2 -2 -2 -2 -2 -2 -1 -1 -1 -1 -1 0 0 0 0 0 0 1 5 10
-4 -3 -3 -3 -3 -3 -3 -3 -3 -3 -3 -3 -2 -2 -2 -2 -2 -2 -2 -2 -1 -1 -1 -1 -1 0 0 0 0 0 0 1 4 10 18
-3 -3 -3 -3 -3 -3 -3 -3 -3 -3 -3 -2 -2 -2 -2 -2 -2 -2 -2 -1 -1 -1 -1 -1 -1 0 0 0 0 0 0 3 8 15 23
-3 -3 -3 -3 -3 -3 -3 -3 -3 -3 -2 -2 -2 -2 -2 -2 -2 -2 -1 -1 -1 -1 -1 -1 -1 0 0 0 0 0 0 2 9 19 27
-3 -3 -3 -3 -3 -3 -3 -3 -3 -2 -2 -2 -2 -2 -2 -2 -1 -1 -1 -1 -1 -1 -1 -1 -1 -1 0 0 0 1 1 3 9 21 31
-3 -3 -3 -3 -3 -3 -3 -3 -2 -2 -2 -2 -2 -2 -2 -1 -1 -1 -1 -1 -1 -1 -1 -1 -1 -1 -1 0 2 4 7 12 19 28 37
-3 -3 -3 -3 -3 -3 -2 -2 -2 -2 -2 -2 -2 -2 -1 -1 -1 -1 -1 -1 -1 -1 -1 -1 -1 -1 0 3 8 14 19 27 36 43 48
-3 -3 -3 -3 -3 -2 -2 -2 -2 -2 -2 -2 -2 -1 -1 -1 -1 -1 -1 -1 -1 -1 -1 -1 0 0 4 9 17 26 35 43 51 58 61
-3 -3 -3 -3 -2 -2 -2 -2 -2 -2 -2 -1 -1 -1 -1 -1 0 0 0 0 0 1 2 3 5 7 9 16 26 39 46 53 60 65 66
-3 -3 -3 -2 -2 -2 -2 -2 -2 -2 -1 -1 -1 -1 -1 0 0 1 2 3 4 5 8 12 16 19 21 25 33 45 54 58 62 64 64
-3 -3 -2 -2 -2 -2 -2 -1 -1 -1 -1 -1 -1 -1 0 1 3 7 11 13 15 16 17 20 23 26 29 31 36 44 51 56 57 58 58
-2 -2 -2 -2 -2 -1 -1 -1 -1 0 0 0 0 1 2 5 10 16 21 24 25 25 26 26 28 30 32 34 35 39 42 44 45 46 45
-2 -2 -2 -2 -1 -1 -1 0 0 0 1 3 4 6 8 13 17 22 25 25 25 26 27 30 32 34 36 37 36 34 33 32 31 31 31
-2 -2 -1 -1 -1 -1 0 0 0 1 3 6 11 14 16 19 21 22 23 22 22 22 23 27 30 33 34 34 32 29 27 26 26 26 25
-2 -1 -1 -1 -1 0 0 1 2 3 6 10 16 21 23 22 20 18 18 19 20 21 21 23 25 27 29 29 28 26 24 23 24 25 24
-1 -1 -1 -1 0 0 0 2 4 7 11 15 20 23 24 21 17 14 14 16 18 20 21 23 23 24 25 25 25 24 23 22 22 22 21
-1 -1 -1 0 0 0 0 2 5 10 15 19 23 24 23 20 16 14 14 16 18 20 21 22 22 23 23 23 23 22 22 22 22 21 20
-1 -1 0 0 0 0 1 2 6 11 16 21 24 24 22 20 18 16 17 18 20 22 23 22 21 20 20 21 21 21 21 21 22 22 22
-1 0 0 0 1 2 4 6 9 13 17 21 24 24 23 22 22 22 22 22 23 23 24 23 21 20 19 19 20 20 20 20 21 22 23
0 0 0 0 1 4 8 12 15 17 18 19 22 23 24 25 26 27 27 26 26 26 25 23 21 20 19 20 20 21 21 21 22 23 25
0 0 0 0 2 4 10 16 19 20 19 18 18 20 23 25 28 29 30 29 27 26 25 23 21 19 19 19 19 21 22 23 24 24 26
0 0 0 1 2 5 9 15 19 20 18 17 16 17 19 22 24 25 26 27 26 24 23 21 20 19 19 19 18 19 20 22 25 26 28
0 0 1 2 4 6 9 13 16 18 17 16 15 15 16 18 19 20 20 20 20 20 19 19 19 19 19 20 20 21 22 24 27 31 34
1 2 4 5 7 9 12 14 16 17 16 15 14 14 14 15 16 16 16 16 16 16 15 15 16 17 18 19 20 22 24 27 32 36 41
3 6 8 10 11 12 15 16 17 17 16 16 15 15 15 15 16 16 15 15 14 14 13 13 14 15 17 17 18 21 25 29 34 39 43
6 10 15 16 16 15 15 16 16 16 15 14 14 15 16 18 18 18 16 15 13 11 11 11 12 13 15 16 17 18 23 29 34 39 42
5 12 17 19 18 17 15 15 15 15 14 13 13 14 16 18 20 20 18 17 15 12 10 10 10 11 13 16 17 18 21 25 29 32 35