ncols        110
nrows        110
xllcorner    -72.33750000001851
yllcorner    -53.40416666668517
cellsize     0.004166666667
NODATA_value -32767
557 607 646 671 701 709 668 643 654 682 711 699 666 628 582 521 454 395 330 265 252 297 412 512 556 548 515 540 605 681 745 777 801 814 767 723 755 815 912 880 742 761 862 882 845 803 719 607 618 715 798 854 859 830 741 721 758 780 784 718 623 540 489 467 443 437 488 535 582 601 550 520 505 506 507 475 426 368 324 294 281 277 267 255 244 231 214 205 199 186 174 166 165 177 184 189 196 201 193 179 169 165 156 107 49 44 79 130 157 156
532 573 618 638 652 659 642 614 608 606 618 623 606 582 554 500 431 374 326 311 357 434 526 608 607 578 613 672 740 811 853 847 820 846 859 844 863 879 878 842 809 871 947 899 721 629 582 549 576 644 717 774 796 820 854 907 923 890 827 746 682 609 540 505 484 461 455 457 511 600 595 557 512 485 476 446 401 359 323 295 279 272 262 248 237 227 215 204 196 187 181 183 191 187 182 187 193 203 201 185 176 163 157 138 69 43 67 99 142 147
517 533 567 589 599 600 596 589 578 562 560 575 555 500 434 364 313 293 307 373 465 527 579 657 699 699 706 681 726 780 815 832 737 698 713 725 747 689 623 617 705 880 927 866 758 641 558 532 519 548 622 649 684 768 860 951 957 875 795 722 670 636 596 552 523 493 467 445 447 471 458 451 452 462 479 493 436 362 326 301 282 266 252 240 231 227 221 209 199 194 192 185 181 178 178 179 181 214 263 248 215 177 151 145 102 44 36 57 111 145
500 502 519 540 551 560 569 564 548 526 502 507 483 403 353 362 371 370 409 466 552 624 669 725 777 804 797 704 627 598 596 601 578 591 544 518 561 564 546 598 703 801 806 750 672 588 562 530 479 453 492 555 644 737 798 865 927 913 875 817 777 774 712 658 620 565 519 483 468 451 439 426 408 431 466 501 471 382 335 309 285 266 253 245 236 228 220 210 204 207 201 186 180 179 175 171 164 174 235 261 249 213 160 150 138 72 33 34 66 120
497 484 478 489 502 518 524 522 510 479 426 392 393 407 433 488 527 525 532 553 596 646 703 773 838 887 861 782 693 621 560 501 451 448 443 444 453 476 571 708 819 847 724 625 573 581 597 563 539 449 421 477 565 654 706 782 924 993 961 881 769 688 643 703 733 668 606 538 510 502 492 471 422 407 423 444 467 416 356 325 302 279 264 255 241 226 218 212 206 201 193 187 181 175 170 167 163 159 182 209 215 198 152 129 130 99 49 49 87 111
487 468 448 448 456 476 496 504 486 457 468 526 574 605 604 597 586 583 607 646 703 694 688 768 858 928 859 723 697 683 615 530 453 424 408 394 389 396 465 610 723 798 715 606 538 489 475 485 515 459 401 427 478 551 637 732 842 937 930 860 740 640 578 605 687 713 730 652 576 553 530 501 450 400 382 390 426 418 365 338 331 314 293 278 260 235 217 211 207 205 198 189 181 172 165 160 157 153 153 147 140 138 133 122 120 110 68 58 97 114
487 476 453 431 428 439 456 459 460 472 503 554 603 662 698 721 685 622 643 708 809 814 731 774 868 897 837 702 618 589 597 632 631 593 526 476 430 393 379 402 447 553 619 606 565 483 435 409 410 398 377 383 404 456 532 598 669 784 828 768 684 597 530 501 577 669 721 698 625 570 513 461 416 384 372 370 377 381 357 336 338 337 343 340 311 270 229 211 203 200 194 185 179 177 169 159 150 144 141 138 138 137 130 121 114 96 75 63 78 100
472 458 434 401 402 425 447 472 503 539 571 607 644 700 759 814 809 704 688 765 864 951 939 943 991 974 891 822 781 782 774 766 738 692 676 672 592 520 459 404 369 401 493 552 598 551 487 445 421 414 396 366 356 368 417 466 503 577 665 674 659 598 528 477 506 592 638 659 621 564 491 423 370 343 335 330 340 350 351 344 341 339 353 364 334 293 241 204 196 190 183 177 173 170 163 158 151 142 137 135 128 118 110 108 107 87 63 52 44 66
431 413 399 387 397 437 480 516 558 600 625 643 668 713 783 856 934 900 832 868 917 915 898 948 971 955 923 909 829 737 654 614 593 538 496 517 532 524 473 422 382 355 416 510 588 592 540 485 433 407 390 362 342 328 344 376 407 446 502 539 559 527 459 427 431 479 531 584 589 536 460 377 326 296 267 263 313 353 377 380 369 353 341 345 329 295 244 200 195 198 190 183 174 165 157 151 146 139 135 130 119 108 103 103 100 94 86 62 26 41
399 388 379 384 406 446 499 548 595 640 673 682 709 757 807 866 972 1033 964 916 909 861 807 746 666 704 791 878 865 792 703 639 633 625 557 491 454 445 444 421 384 354 387 482 513 492 439 389 358 341 335 327 324 312 303 318 337 342 361 400 439 460 412 366 363 369 372 378 386 379 364 326 299 299 272 231 261 311 347 372 369 352 330 313 287 253 224 200 189 186 186 188 178 165 152 141 136 131 126 119 114 104 96 94 91 87 73 53 35 23
365 358 367 392 424 464 526 585 627 674 730 754 764 769 782 851 913 879 768 679 718 763 777 733 584 598 740 848 920 848 777 810 824 797 695 586 593 618 594 543 474 409 361 386 403 384 362 341 323 312 303 292 289 285 278 279 273 266 280 316 327 328 313 302 293 278 257 242 268 289 302 283 238 209 191 185 193 242 295 347 356 336 320 292 252 221 213 202 189 182 178 177 172 163 151 138 127 119 112 106 102 95 85 81 78 75 74 75 65 35
356 371 397 433 470 503 555 619 665 711 795 868 903 891 819 839 896 883 868 748 651 611 615 654 566 516 654 799 888 849 738 762 834 859 857 818 816 831 779 681 597 521 434 378 356 337 326 311 300 302 305 313 321 320 327 330 320 320 342 332 289 288 302 290 274 288 304 308 298 258 264 288 284 282 267 231 186 190 206 273 345 345 324 291 257 227 214 211 196 181 179 173 160 151 144 134 124 117 109 100 93 87 81 76 68 66 71 72 64 43
357 382 413 454 503 547 594 684 772 818 876 913 912 886 765 683 771 843 810 710 608 529 476 490 483 481 559 659 696 710 669 677 773 848 862 866 879 863 796 698 630 586 526 449 389 339 318 308 310 343 401 445 458 446 416 386 365 350 356 365 356 355 369 378 378 387 395 386 366 337 328 337 328 306 281 259 241 229 177 190 310 342 318 288 254 221 206 216 208 188 182 176 159 147 140 128 112 101 94 89 87 81 73 64 56 48 41 32 26 21
349 400 437 469 533 596 648 728 821 883 895 840 787 774 714 603 661 802 849 868 779 680 584 522 483 456 445 451 466 488 502 538 624 702 678 650 670 662 607 596 635 636 593 504 413 349 319 316 364 442 504 523 470 421 398 405 432 422 394 377 370 392 409 413 420 429 433 431 421 411 406 382 346 325 308 274 257 264 227 190 231 262 269 265 238 217 204 206 211 200 182 165 153 149 140 130 113 96 85 76 69 59 50 41 28 15 9 16 19 15
342 394 436 470 531 619 707 794 870 887 798 712 637 600 600 553 550 660 785 941 990 947 847 713 636 574 503 483 504 485 420 393 398 435 440 438 463 495 470 452 489 502 499 455 378 342 324 322 361 449 516 566 569 550 516 482 497 492 454 416 382 402 430 457 483 487 488 479 463 448 438 419 374 338 316 285 254 248 246 238 232 201 202 236 236 220 208 202 209 199 175 162 159 145 126 112 98 91 80 66 55 47 41 27 3 -6 -3 -1 -1 2
330 376 435 482 527 623 731 819 875 902 849 743 610 486 458 442 435 504 628 755 851 952 979 867 805 800 781 762 756 713 601 514 451 400 372 367 361 356 345 338 353 374 385 381 355 334 320 350 437 504 556 613 634 600 543 474 453 444 425 428 448 467 466 479 509 523 533 519 495 460 430 418 388 354 334 312 278 250 243 231 200 175 175 212 245 238 220 204 200 193 175 160 157 144 120 104 92 80 67 56 43 20 2 -2 -2 -1 0 -1 -1 -2
301 354 418 465 489 556 669 743 794 863 899 833 718 558 476 435 415 422 464 526 652 777 867 846 786 743 724 800 803 713 601 513 468 446 451 455 416 387 366 353 349 346 341 335 331 338 372 444 514 566 619 619 548 481 462 454 442 425 443 535 591 595 573 525 497 484 520 527 496 449 396 377 373 384 393 370 321 255 235 232 178 136 144 171 192 155 107 137 180 180 177 161 147 133 116 95 83 73 59 48 38 18 -1 -3 -1 -2 -3 -4 -6 -8
267 326 373 421 444 462 544 627 685 746 814 818 788 731 678 608 525 428 376 392 484 600 658 662 638 613 589 581 560 521 495 504 517 525 585 653 646 602 521 454 432 409 391 385 403 453 545 647 700 693 651 577 512 515 570 587 522 473 466 556 673 699 672 588 521 471 462 461 433 397 358 344 358 395 435 420 370 287 227 224 214 218 213 192 186 180 129 102 115 132 140 132 130 127 115 89 73 62 50 37 22 10 1 -1 -2 -5 -8 -11 -14 -15
250 290 335 378 404 429 474 531 578 623 667 705 759 791 787 742 664 530 398 364 389 493 550 539 537 519 510 512 514 518 511 546 633 733 824 853 843 822 773 687 632 615 592 574 592 645 741 778 745 682 602 513 506 624 710 723 650 553 513 518 582 618 628 586 526 482 445 406 373 349 328 318 348 395 416 396 353 296 230 204 203 203 203 216 227 225 196 171 161 147 122 111 123 119 106 90 67 54 39 10 -7 -4 -2 -4 -7 -11 -15 -17 -19 -21
208 276 330 358 340 350 387 430 482 530 572 612 659 702 686 626 567 501 409 356 345 444 600 649 669 670 682 681 668 633 598 623 711 812 909 973 1017 1037 1007 898 811 817 786 690 658 674 701 683 620 557 485 464 505 613 712 771 783 692 610 544 538 564 563 555 535 501 440 394 362 335 316 310 331 387 397 357 321 287 231 191 189 191 191 200 213 210 196 170 149 147 135 117 89 49 63 82 61 42 33 17 0 -2 -2 -7 -13 -17 -20 -22 -24 -25
151 202 258 313 320 328 332 351 393 424 451 486 526 570 584 524 468 427 375 359 387 477 632 745 820 881 942 939 870 731 642 650 723 872 965 1014 1047 1049 1032 981 877 828 825 771 722 664 608 569 547 523 489 480 519 579 666 762 859 817 681 569 497 498 505 505 484 453 414 383 354 324 302 299 320 364 412 358 270 237 211 188 185 192 193 194 204 203 186 168 155 145 133 122 98 46 33 62 56 36 26 16 4 -2 -6 -11 -16 -21 -24 -26 -27 -28
131 147 165 196 221 265 290 290 305 324 350 381 417 460 498 462 398 325 281 337 417 493 590 695 791 880 990 1032 975 875 749 705 717 770 813 848 855 853 857 854 751 675 704 710 701 664 594 558 544 500 469 489 524 558 648 768 866 871 717 580 485 439 419 405 404 401 398 406 388 333 301 290 296 326 401 382 273 229 217 200 189 189 185 167 164 170 163 160 150 136 121 108 95 68 40 38 35 27 19 11 4 -2 -9 -15 -19 -23 -25 -27 -28 -29
37 39 60 66 59 127 218 237 246 237 229 225 262 324 358 356 319 271 227 274 375 446 516 614 707 790 874 920 921 910 845 804 796 796 795 771 758 736 685 677 653 612 577 562 570 580 522 480 507 489 429 449 503 540 601 650 684 736 682 590 508 425 375 353 356 361 388 429 450 383 309 286 278 277 295 305 256 214 206 202 199 202 201 183 160 153 152 127 95 81 78 78 70 56 43 35 27 18 6 0 -1 -7 -13 -17 -21 -24 -26 -28 -28 -29
2 8 15 12 99998 9 51 92 152 160 154 160 186 238 251 228 191 157 154 195 294 385 440 511 595 688 767 768 763 825 862 834 790 749 746 763 819 838 804 759 650 555 477 462 490 593 587 486 462 442 416 421 422 454 535 549 517 531 533 540 521 421 361 339 315 310 395 487 497 436 323 268 251 235 227 225 214 198 193 194 205 216 211 198 176 169 174 137 83 67 62 56 51 41 32 26 19 9 1 -2 -5 -9 -14 -18 -21 -24 -25 -26 -27 -28
147 128 87 37 1 99993 2 18 51 79 119 156 170 172 155 126 91 80 93 121 190 288 355 421 485 558 642 677 696 792 886 833 764 733 698 637 684 803 828 801 779 729 596 516 451 460 485 465 441 398 389 411 404 398 428 421 420 421 383 401 434 385 338 312 291 285 357 490 505 431 333 256 230 215 204 196 193 194 200 199 204 210 201 186 169 157 160 145 86 44 33 33 41 35 23 18 10 1 -3 -4 -7 -11 -15 -18 -21 -23 -24 -25 -26 -26
210 220 205 124 26 4 2 4 10 19 61 112 140 153 136 100 53 34 32 48 96 170 230 304 379 457 501 515 588 698 783 809 774 722 648 590 577 632 654 663 700 748 709 649 567 498 421 381 403 386 347 349 370 414 429 387 390 409 387 359 335 309 302 294 271 269 292 390 448 371 296 258 241 221 199 181 178 180 183 198 227 219 187 166 153 153 153 146 102 33 12 20 29 25 9 -1 -2 -2 -2 -6 -10 -13 -16 -18 -20 -21 -22 -23 -24 -24
160 189 194 168 102 70 40 24 19 9 16 38 52 59 60 61 53 52 68 93 111 117 156 187 194 278 345 353 442 612 723 773 757 719 687 649 572 534 524 525 523 542 567 577 535 515 494 469 437 393 343 326 332 364 408 402 395 365 333 325 315 317 352 387 345 306 284 272 255 225 223 232 239 220 198 181 176 175 182 195 212 211 181 158 140 138 147 143 118 45 3 29 37 21 8 -1 -2 -2 -5 -9 -12 -15 -17 -18 -19 -19 -20 -21 -20 -19
128 140 153 173 162 137 128 127 52 13 19 14 16 21 33 39 31 22 14 3 -14 -11 75 146 175 208 226 252 273 415 575 641 673 666 654 647 621 591 566 555 558 568 566 509 427 416 395 371 367 381 376 341 314 305 321 332 330 329 362 358 337 349 369 390 394 394 377 351 303 242 215 207 204 191 179 179 184 178 172 166 165 175 169 153 128 106 116 121 111 70 7 5 25 18 7 1 -2 -6 -9 -11 -14 -15 -16 -17 -17 -17 -17 -16 -17 -16
105 104 109 101 84 71 84 122 146 179 140 94 44 8 48 44 0 -8 -3 -2 -2 -8 11 30 67 140 197 228 226 308 439 532 612 620 599 585 568 559 551 548 553 572 602 593 514 473 457 449 439 455 461 409 365 359 353 345 319 287 313 337 339 348 343 344 354 367 366 343 296 233 209 207 194 175 168 168 174 173 161 148 139 143 142 121 94 71 73 94 90 60 18 99991 10 11 3 -1 -5 -8 -11 -13 -14 -15 -15 -16 -16 -16 -15 -14 -14 -13
63 70 87 79 39 24 21 27 43 113 162 184 143 56 48 51 20 -4 -3 -1 -1 -1 -1 -13 2 67 114 153 203 249 316 395 500 574 573 571 575 547 503 489 485 480 479 489 490 480 465 462 471 476 473 459 467 461 427 399 365 337 322 283 286 303 308 324 305 285 276 261 247 232 225 215 198 173 159 153 154 157 147 135 130 129 131 118 76 42 25 55 66 43 22 3 -3 -2 -2 -4 -8 -11 -13 -14 -15 -16 -16 -16 -16 -15 -13 -12 -11 -9
46 45 49 49 43 39 20 9 7 32 67 116 145 92 53 54 37 3 -7 -3 -2 -1 -1 -2 -3 -2 -5 47 98 150 221 256 341 468 508 517 538 537 496 462 438 438 459 453 437 437 446 437 424 413 402 383 397 397 367 339 308 293 294 283 274 252 258 295 302 291 263 230 219 211 197 185 180 173 164 152 140 135 129 115 114 132 160 173 110 52 65 67 48 36 21 7 -2 -2 -4 -8 -11 -13 -15 -16 -17 -17 -17 -17 -15 -14 -12 -10 -8 -6
23 25 29 27 28 33 29 27 23 16 20 43 101 107 56 46 46 23 16 22 20 3 -3 -1 -1 -1 -2 -4 -22 34 143 194 237 311 370 436 479 462 442 425 406 387 371 359 365 380 411 425 432 415 390 384 388 338 308 304 284 268 258 246 246 239 220 230 255 250 238 221 212 204 190 176 171 163 148 132 119 114 111 98 93 127 170 204 175 88 37 99990 11 31 17 5 1 -4 -9 -13 -16 -18 -19 -19 -19 -19 -19 -17 -16 -14 -11 -9 -5 -3
-4 1 15 19 17 16 18 28 27 8 10 35 74 95 99 105 63 44 40 30 27 11 -2 -2 -1 -1 -1 -1 -9 -1 73 142 177 213 247 330 428 449 444 426 398 376 358 343 333 338 357 349 320 308 322 347 369 373 395 378 357 347 338 320 297 264 219 202 213 216 227 219 203 188 174 161 153 148 138 124 111 100 92 85 81 122 205 218 160 96 58 16 99991 13 12 4 -3 -12 -16 -19 -22 -23 -24 -24 -24 -23 -22 -20 -18 -15 -12 -8 -5 -3
-2 -1 3 4 0 1 7 12 18 20 27 38 43 47 59 64 71 84 53 27 22 14 2 -2 -1 -1 -1 -1 -2 -7 8 17 65 158 199 246 353 426 442 431 404 397 397 417 436 440 431 416 392 351 313 301 314 318 312 315 341 349 346 315 288 275 247 221 193 161 165 176 173 164 155 152 155 148 134 118 106 97 89 83 79 84 137 155 85 51 52 29 1 -2 -2 -7 -14 -20 -24 -27 -29 -30 -30 -30 -29 -28 -26 -24 -21 -18 -14 -10 -6 -2
-1 -1 -1 -2 -1 -1 -2 -2 6 14 19 19 12 13 13 8 10 21 24 20 18 17 9 0 -1 -1 -1 -1 -1 -1 -1 -14 6 90 153 183 269 388 427 436 444 448 438 442 454 467 484 473 447 445 441 418 386 349 305 264 264 266 279 287 301 273 226 212 190 162 153 161 156 144 140 139 136 132 126 118 105 94 88 82 74 65 68 78 66 49 29 4 -2 -4 -13 -20 -26 -30 -33 -36 -37 -38 -38 -37 -36 -34 -31 -29 -26 -22 -18 -13 -9 -4
1 -2 -1 -1 -1 -1 -1 -2 1 7 12 14 10 7 7 9 5 7 6 3 2 11 17 12 6 0 -2 -1 -1 -1 -1 -4 -9 35 107 146 188 245 292 385 445 463 467 464 448 439 470 473 450 434 413 412 405 396 382 354 316 272 253 230 254 270 245 215 173 140 121 123 126 116 109 108 113 125 127 123 104 84 81 73 58 46 37 41 42 32 17 2 -6 -16 -25 -32 -38 -42 -45 -46 -48 -48 -48 -47 -45 -42 -39 -36 -32 -27 -23 -18 -13 -8
6 -1 -2 -1 -1 -1 -1 -1 -1 2 6 9 12 14 24 44 62 69 39 23 15 14 18 13 7 1 -1 -1 -1 -1 -1 -1 -8 3 56 96 140 184 219 297 377 413 425 429 425 422 426 427 456 502 503 476 428 407 392 365 339 316 280 231 218 212 203 197 163 129 109 97 100 108 116 109 90 97 103 109 102 84 71 59 47 39 33 29 20 13 8 -3 -22 -33 -41 -47 -52 -56 -58 -59 -60 -61 -60 -58 -56 -53 -49 -44 -40 -35 -30 -25 -19 -12
-3 -3 -1 -1 -1 -1 -1 -1 -1 0 3 7 11 12 17 27 26 19 29 48 35 19 8 -2 -2 -2 -1 -1 -2 -2 -2 -1 -1 -2 -6 -13 55 145 179 225 317 373 379 381 373 371 372 360 379 436 445 427 406 378 356 334 292 254 224 207 198 178 161 156 142 118 97 81 94 115 129 134 110 94 81 77 77 60 45 40 34 25 16 7 0 -6 -13 -25 -41 -51 -59 -65 -69 -72 -74 -75 -76 -75 -74 -72 -69 -65 -60 -55 -49 -43 -38 -32 -26 -19
6 -8 -1 -1 -1 -1 -1 -1 -1 -1 -1 0 6 10 9 9 15 18 17 15 16 17 13 10 5 0 -1 -2 -4 -5 -5 -4 -2 -1 -1 -10 11 87 136 161 238 330 350 344 339 337 328 304 278 284 293 300 303 301 300 282 250 217 181 153 142 128 115 110 104 91 81 72 74 85 102 118 116 110 80 44 34 31 35 31 18 7 -3 -13 -23 -33 -44 -54 -63 -72 -79 -84 -88 -91 -93 -94 -93 -91 -89 -86 -83 -78 -72 -66 -60 -54 -48 -41 -34 -26
39 -7 -4 -1 -1 -1 -1 -1 -1 -1 -1 -1 -1 -1 -3 -2 3 2 99992 3 10 9 12 10 5 2 0 -3 -5 -7 -7 -7 -5 -3 -2 -4 -7 36 98 120 153 228 261 264 271 271 243 212 190 184 208 225 230 234 226 203 183 153 128 110 100 89 90 92 81 72 70 69 70 80 91 97 95 86 61 29 26 26 23 14 1 -10 -21 -33 -45 -57 -67 -78 -87 -95 -101 -105 -109 -111 -113 -113 -111 -109 -105 -101 -97 -91 -85 -79 -72 -65 -58 -50 -43 -35
74 7 -8 -1 -2 -1 -1 -1 -1 -1 -1 -1 -1 -1 -1 -1 -2 -2 5 14 5 3 9 9 5 2 -1 -3 -5 -7 -8 -9 -8 -7 -4 -1 -6 3 23 41 95 129 138 174 210 198 177 177 168 150 151 151 154 160 159 156 141 121 101 95 101 109 117 110 96 76 64 63 70 82 88 81 56 40 40 45 44 25 9 -2 -14 -25 -39 -53 -67 -81 -93 -103 -112 -119 -124 -128 -130 -133 -134 -134 -131 -127 -123 -119 -113 -107 -101 -93 -85 -77 -69 -61 -53 -45
85 55 35 9 -3 -1 -1 -1 -2 -2 -3 -3 -2 -2 -1 -1 -1 -1 -1 -2 0 8 10 8 3 -1 -1 -2 -5 -8 -10 -11 -11 -10 -8 -3 -1 -1 -7 -8 39 85 100 120 143 138 125 132 142 129 111 118 133 150 152 145 139 133 98 76 85 95 114 121 117 91 69 63 67 82 79 66 41 23 31 33 20 10 6 -8 -29 -45 -59 -74 -90 -105 -117 -128 -137 -144 -148 -152 -154 -156 -157 -156 -153 -149 -144 -138 -131 -124 -116 -108 -99 -90 -81 -72 -63 -54
72 43 8 -5 -1 -1 -1 -1 -1 -2 -3 -3 -2 -1 -1 -1 -1 -1 -1 -1 -1 2 3 5 5 4 2 0 0 0 -6 -12 -14 -14 -13 -11 -7 -4 -1 -5 8 44 66 78 89 99 101 106 123 124 112 99 69 76 95 114 136 154 132 83 64 60 82 105 115 107 86 73 65 54 45 44 38 30 26 19 7 -6 -15 -30 -48 -64 -80 -97 -114 -130 -144 -155 -164 -171 -176 -180 -182 -183 -182 -179 -176 -171 -164 -157 -149 -141 -133 -123 -113 -103 -93 -84 -74 -64
35 13 1 -1 -1 -1 -1 -1 -1 -1 -1 -1 -1 -1 -1 -1 -1 -1 -1 -1 -1 0 -2 0 4 4 2 1 2 3 -1 -12 -17 -18 -18 -18 -16 -13 -5 -4 -3 15 35 47 59 73 79 78 97 123 134 127 87 67 63 68 87 83 69 70 72 54 60 88 96 91 79 64 49 40 44 39 29 21 11 4 -6 -22 -37 -52 -68 -85 -102 -121 -139 -156 -172 -184 -194 -202 -207 -209 -209 -208 -206 -203 -198 -192 -184 -175 -167 -157 -147 -137 -128 -117 -105 -95 -84 -74
-7 -5 -3 -1 0 -1 -2 -1 -1 -1 -1 -1 -1 -1 -1 -1 -1 1 4 4 4 5 2 -1 1 2 0 0 -2 -7 -12 -17 -20 -23 -25 -27 -26 -24 -20 -14 -9 1 11 22 34 46 57 74 94 106 111 115 108 98 65 37 40 42 62 75 80 73 58 44 28 45 52 43 35 29 24 18 13 10 8 -4 -28 -45 -59 -76 -93 -111 -129 -148 -166 -184 -199 -213 -224 -231 -235 -236 -234 -232 -228 -223 -217 -210 -201 -192 -182 -172 -162 -152 -141 -129 -118 -107 -95 -84
4 8 9 11 11 6 3 1 -2 -1 -1 -1 -1 -1 -1 -1 -1 0 1 3 5 5 3 0 -1 1 2 1 -5 -13 -18 -23 -27 -31 -35 -37 -38 -37 -35 -31 -26 -18 -9 0 11 20 30 40 47 53 60 67 68 68 66 63 54 30 26 29 53 66 52 39 35 34 26 20 17 12 5 0 -1 -14 -29 -41 -56 -70 -86 -103 -120 -138 -156 -173 -191 -208 -224 -238 -248 -254 -257 -257 -255 -251 -246 -240 -233 -226 -217 -208 -197 -186 -175 -164 -153 -142 -130 -118 -107 -95
12 16 14 14 15 16 16 9 -1 -2 -1 -1 -1 -1 2 7 4 1 3 4 1 -2 -1 -2 -1 0 1 2 -2 -15 -25 -31 -36 -41 -46 -50 -53 -54 -53 -52 -48 -41 -34 -25 -16 -8 1 11 20 28 33 36 36 36 34 42 47 32 25 26 27 23 21 20 18 13 1 -7 -7 -13 -22 -15 -12 -38 -59 -71 -84 -98 -114 -131 -148 -165 -181 -196 -212 -227 -243 -255 -264 -270 -272 -272 -269 -265 -260 -253 -246 -239 -230 -221 -210 -199 -188 -177 -166 -155 -143 -131 -119 -107
7 14 22 33 31 20 22 21 4 -5 -1 -2 -1 -1 -1 6 11 10 9 8 7 7 2 -2 -1 0 1 2 -3 -18 -31 -39 -46 -53 -59 -64 -68 -72 -75 -75 -73 -69 -64 -57 -48 -39 -31 -22 -15 -6 6 13 13 10 9 10 10 10 9 8 10 7 6 5 4 4 -6 -21 -30 -39 -49 -57 -68 -78 -88 -100 -114 -127 -142 -158 -173 -188 -201 -215 -228 -242 -255 -266 -275 -281 -284 -284 -281 -277 -271 -265 -258 -251 -242 -232 -222 -212 -201 -190 -179 -167 -155 -143 -132 -120
5 11 19 31 37 31 33 36 30 30 15 1 0 -6 -6 3 16 16 11 11 10 8 5 1 -1 -3 -7 -14 -22 -30 -39 -48 -56 -65 -73 -80 -87 -93 -99 -102 -103 -102 -98 -92 -85 -77 -68 -61 -54 -29 -5 -12 -21 -24 -18 -4 -5 -13 -17 -18 -20 -19 -3 9 8 -13 -45 -54 -59 -69 -79 -88 -98 -108 -118 -129 -141 -153 -167 -180 -193 -206 -219 -231 -242 -255 -266 -275 -283 -289 -292 -292 -290 -286 -281 -275 -269 -261 -253 -244 -235 -224 -213 -202 -191 -180 -168 -156 -144 -131
4 7 16 29 41 53 63 54 46 47 47 49 35 21 28 34 31 24 20 16 4 2 8 5 1 -4 -9 -16 -24 -33 -44 -56 -67 -78 -88 -98 -107 -115 -123 -130 -135 -136 -135 -131 -125 -117 -109 -101 -95 -87 -81 -77 -69 -64 -59 -56 -55 -54 -52 -51 -53 -55 -38 -29 -43 -63 -76 -83 -91 -100 -109 -118 -127 -136 -146 -156 -166 -178 -189 -200 -212 -224 -236 -246 -255 -265 -275 -283 -289 -295 -298 -298 -297 -294 -289 -284 -277 -270 -263 -254 -245 -235 -224 -213 -202 -191 -180 -168 -156 -144
14 14 20 22 33 48 57 62 67 78 91 81 64 61 46 18 5 17 27 30 11 -5 -2 -2 -1 -3 -8 -15 -24 -35 -47 -61 -75 -89 -102 -115 -127 -138 -149 -158 -166 -170 -172 -170 -165 -159 -153 -146 -139 -132 -126 -119 -113 -107 -101 -96 -94 -90 -87 -85 -85 -86 -89 -93 -97 -101 -106 -114 -122 -131 -139 -148 -156 -165 -173 -182 -191 -201 -211 -221 -231 -241 -251 -260 -267 -275 -282 -289 -296 -300 -303 -304 -303 -300 -296 -291 -285 -278 -271 -263 -254 -245 -234 -223 -212 -201 -190 -179 -167 -156
37 40 40 30 35 49 62 78 97 115 126 124 120 105 81 64 57 54 49 48 40 32 20 2 1 -2 -5 -10 -21 -34 -48 -64 -81 -98 -115 -131 -145 -159 -173 -186 -196 -204 -210 -213 -211 -207 -200 -193 -187 -180 -174 -166 -158 -151 -144 -138 -133 -129 -125 -122 -120 -120 -121 -123 -126 -131 -138 -145 -154 -162 -170 -179 -186 -194 -201 -208 -215 -223 -232 -240 -248 -256 -264 -271 -277 -283 -289 -295 -300 -304 -306 -307 -306 -304 -300 -296 -290 -284 -278 -271 -263 -254 -244 -233 -223 -211 -201 -190 -179 -167
36 40 36 35 40 52 72 106 135 141 141 149 151 147 130 114 101 90 82 76 65 58 50 41 29 5 -6 -4 -14 -29 -46 -63 -84 -104 -126 -145 -163 -180 -196 -213 -227 -240 -249 -255 -256 -253 -247 -241 -233 -226 -219 -211 -202 -193 -184 -176 -170 -165 -161 -157 -155 -154 -155 -157 -160 -165 -169 -176 -184 -192 -200 -207 -214 -220 -226 -232 -237 -243 -250 -256 -263 -269 -275 -281 -286 -290 -295 -299 -302 -306 -308 -308 -307 -305 -302 -299 -294 -289 -283 -277 -270 -262 -252 -242 -232 -221 -211 -200 -189 -177
12 18 17 19 30 59 115 165 194 189 174 151 134 150 148 129 115 110 118 118 94 78 70 62 51 28 13 7 -5 -22 -40 -58 -80 -105 -129 -154 -177 -199 -219 -239 -256 -272 -285 -293 -297 -296 -291 -283 -274 -264 -257 -249 -240 -231 -221 -213 -206 -200 -196 -193 -191 -190 -189 -190 -192 -196 -200 -206 -212 -219 -226 -233 -239 -244 -249 -254 -258 -262 -267 -271 -275 -281 -285 -290 -293 -296 -299 -301 -303 -306 -308 -308 -308 -306 -304 -301 -297 -292 -288 -283 -277 -269 -261 -251 -241 -230 -220 -209 -198 -187
6 6 6 3 20 60 133 201 225 235 232 227 229 218 196 188 186 172 153 138 130 126 116 98 77 62 46 23 4 -13 -29 -48 -71 -99 -128 -158 -186 -212 -237 -260 -280 -298 -312 -323 -329 -329 -325 -318 -309 -299 -290 -282 -274 -266 -256 -248 -240 -233 -229 -226 -223 -221 -220 -221 -222 -224 -227 -231 -237 -244 -250 -256 -262 -266 -270 -274 -276 -279 -282 -284 -286 -289 -292 -294 -297 -299 -300 -301 -303 -304 -306 -307 -306 -306 -304 -302 -299 -295 -291 -287 -281 -274 -267 -258 -248 -238 -227 -215 -205 -194
7 6 7 3 10 48 99 151 193 237 265 289 292 281 267 250 218 189 179 178 174 166 153 138 128 115 79 40 15 -5 -17 -35 -65 -95 -123 -157 -190 -220 -248 -273 -295 -315 -331 -344 -352 -355 -353 -347 -338 -329 -320 -313 -305 -297 -288 -279 -272 -265 -260 -256 -252 -249 -248 -248 -248 -249 -252 -256 -261 -267 -273 -278 -283 -286 -289 -291 -292 -292 -292 -293 -294 -294 -295 -296 -297 -298 -299 -299 -300 -301 -302 -303 -303 -303 -302 -300 -298 -295 -292 -289 -284 -278 -271 -262 -253 -242 -231 -220 -209 -199
13 6 6 6 4 25 60 82 106 162 209 238 258 280 276 245 207 184 183 181 172 165 157 153 148 116 78 54 35 19 2 -16 -28 -36 -92 -159 -193 -225 -256 -284 -309 -330 -346 -359 -368 -374 -374 -368 -362 -354 -345 -336 -330 -322 -315 -306 -298 -291 -286 -281 -278 -275 -273 -272 -272 -273 -275 -278 -281 -286 -291 -295 -299 -301 -303 -303 -302 -300 -298 -296 -295 -294 -293 -293 -293 -294 -295 -295 -294 -295 -296 -297 -298 -298 -298 -296 -295 -293 -290 -287 -283 -278 -271 -264 -255 -245 -234 -224 -213 -202
31 11 5 7 4 9 26 45 67 99 137 170 193 212 216 198 182 181 182 179 166 146 125 111 108 97 84 71 42 25 15 5 8 24 -31 -144 -200 -231 -265 -295 -321 -342 -359 -372 -381 -387 -388 -385 -379 -372 -364 -356 -349 -342 -335 -328 -320 -313 -307 -302 -299 -297 -295 -293 -292 -293 -293 -295 -297 -300 -303 -306 -308 -309 -309 -307 -304 -301 -298 -294 -292 -289 -287 -286 -286 -286 -286 -286 -286 -286 -287 -288 -289 -290 -290 -289 -288 -286 -285 -282 -279 -276 -270 -264 -256 -246 -236 -225 -213 -202
122 109 68 28 2 2 7 13 37 71 107 149 183 205 208 201 194 194 182 159 135 118 110 109 107 102 107 100 70 47 13 -3 -11 -31 -77 -148 -196 -236 -273 -304 -329 -350 -366 -378 -388 -394 -396 -394 -390 -384 -377 -369 -362 -356 -350 -344 -337 -330 -324 -320 -316 -314 -312 -310 -308 -307 -306 -306 -307 -308 -309 -309 -310 -309 -307 -305 -301 -296 -291 -287 -283 -280 -277 -275 -273 -273 -273 -273 -273 -273 -274 -276 -277 -278 -279 -280 -279 -278 -277 -275 -273 -270 -265 -260 -252 -243 -232 -221 -210 -199
158 155 91 42 13 11 20 33 45 39 60 107 139 168 190 206 201 180 154 141 141 140 135 123 105 92 79 66 51 28 10 0 -42 -93 -129 -163 -202 -242 -280 -310 -334 -353 -368 -379 -388 -393 -396 -396 -393 -389 -383 -377 -371 -366 -361 -356 -349 -343 -338 -333 -329 -326 -323 -321 -318 -315 -313 -311 -310 -309 -308 -307 -305 -303 -300 -297 -292 -286 -281 -275 -269 -265 -261 -259 -257 -256 -256 -256 -257 -257 -258 -259 -261 -264 -265 -266 -267 -266 -266 -265 -262 -259 -255 -249 -242 -233 -222 -211 -200 -188
73 73 38 10 16 26 26 30 37 45 61 75 88 99 111 138 147 143 146 151 160 162 150 134 115 90 57 38 21 9 7 11 -30 -101 -142 -175 -214 -251 -285 -313 -335 -352 -364 -375 -383 -388 -391 -392 -391 -387 -383 -379 -375 -371 -367 -363 -357 -352 -347 -342 -337 -334 -330 -326 -322 -319 -315 -311 -308 -305 -302 -299 -296 -292 -288 -283 -278 -271 -264 -257 -251 -245 -241 -237 -234 -233 -234 -235 -236 -237 -238 -240 -242 -245 -247 -249 -250 -250 -250 -248 -245 -242 -237 -230 -223 -214 -203 -192 -181 -170
19 13 12 18 20 14 11 7 1 3 30 52 61 69 81 101 111 112 114 119 126 128 116 95 74 52 35 20 -3 -23 -44 -72 -104 -134 -162 -193 -226 -259 -289 -313 -332 -346 -357 -367 -373 -378 -382 -383 -384 -382 -380 -378 -375 -373 -370 -367 -363 -358 -353 -347 -342 -337 -333 -328 -323 -318 -313 -308 -302 -298 -293 -288 -283 -278 -273 -267 -260 -252 -244 -237 -229 -222 -216 -211 -207 -206 -206 -207 -209 -211 -213 -215 -217 -220 -223 -225 -227 -228 -227 -225 -221 -216 -210 -202 -194 -186 -176 -166 -157 -147
-5 -2 0 7 13 10 5 0 -2 -3 7 22 31 40 53 56 40 42 59 64 58 47 37 30 20 8 2 -2 -28 -59 -83 -107 -133 -159 -185 -212 -240 -267 -291 -311 -327 -340 -350 -357 -364 -369 -372 -374 -376 -376 -376 -375 -374 -372 -370 -368 -365 -360 -355 -349 -343 -338 -332 -327 -321 -315 -308 -301 -294 -288 -282 -275 -268 -261 -253 -246 -238 -230 -221 -212 -203 -194 -186 -180 -176 -174 -174 -175 -177 -179 -181 -183 -186 -189 -192 -195 -197 -198 -198 -196 -192 -186 -179 -171 -162 -153 -145 -136 -128 -120
-3 -1 -4 -3 -1 -2 -3 -4 -7 -9 -8 -5 -1 9 17 16 22 30 30 23 14 6 -1 -11 -23 -37 -50 -64 -82 -100 -120 -142 -165 -188 -210 -232 -253 -273 -292 -309 -323 -334 -342 -349 -355 -360 -363 -366 -368 -369 -369 -369 -369 -368 -367 -365 -363 -359 -354 -348 -341 -335 -329 -322 -316 -309 -301 -292 -283 -274 -266 -257 -249 -240 -231 -222 -212 -203 -192 -181 -170 -160 -151 -144 -139 -135 -135 -135 -137 -139 -143 -145 -147 -151 -156 -159 -162 -164 -164 -164 -159 -153 -145 -136 -127 -118 -110 -103 -96 -89
17 -1 -3 19 20 1 -7 -18 -27 -31 -35 -38 -41 -38 -33 -13 4 -9 -25 -37 -45 -50 -56 -65 -76 -89 -100 -112 -126 -141 -158 -176 -196 -215 -233 -249 -265 -280 -295 -308 -320 -330 -337 -343 -347 -351 -355 -357 -358 -359 -360 -360 -360 -360 -360 -359 -357 -353 -348 -343 -336 -329 -322 -315 -307 -299 -289 -279 -268 -258 -248 -237 -227 -216 -205 -194 -182 -171 -159 -146 -134 -122 -112 -101 -93 -87 -86 -88 -90 -93 -97 -101 -105 -108 -113 -117 -122 -125 -127 -127 -123 -118 -110 -101 -91 -81 -72 -64 -58 -53
71 22 23 26 14 6 -10 -42 -59 -66 -73 -79 -87 -93 -96 -95 -99 -105 -108 -110 -112 -116 -121 -126 -134 -143 -151 -159 -168 -179 -191 -205 -220 -235 -250 -264 -277 -289 -301 -311 -320 -326 -332 -336 -339 -341 -343 -344 -345 -345 -345 -345 -346 -346 -346 -346 -345 -342 -339 -333 -327 -319 -312 -304 -295 -286 -276 -264 -251 -239 -227 -214 -202 -189 -175 -161 -146 -132 -118 -102 -85 -67 -52 -42 -38 -35 -30 -23 -25 -36 -43 -44 -49 -61 -67 -73 -79 -85 -88 -88 -86 -81 -73 -64 -53 -42 -32 -22 -14 -7
191 84 57 30 14 -12 -55 -81 -98 -112 -124 -134 -143 -149 -155 -160 -164 -167 -170 -173 -176 -180 -183 -186 -189 -192 -195 -197 -202 -209 -219 -230 -243 -255 -268 -280 -289 -298 -306 -312 -317 -320 -322 -323 -324 -325 -325 -324 -324 -324 -323 -323 -323 -325 -327 -328 -328 -327 -324 -320 -314 -306 -298 -289 -280 -271 -259 -245 -232 -218 -203 -189 -173 -157 -140 -123 -105 -88 -68 -50 -36 -26 -17 -5 14 36 57 45 -2 -2 23 11 -19 -11 -8 -24 -31 -35 -41 -47 -47 -43 -36 -26 -15 -4 7 7 -6 -9
92 59 32 12 -16 -64 -95 -117 -139 -160 -178 -191 -200 -208 -215 -221 -224 -226 -228 -229 -232 -233 -233 -234 -235 -234 -233 -233 -235 -238 -244 -253 -262 -272 -281 -290 -297 -302 -305 -306 -306 -306 -305 -303 -300 -298 -296 -294 -293 -292 -292 -291 -293 -296 -299 -303 -306 -307 -306 -303 -297 -290 -282 -272 -262 -252 -239 -226 -211 -194 -177 -158 -140 -121 -101 -78 -51 -27 -3 17 40 69 98 124 144 155 163 167 157 157 152 125 90 58 -2 -5 -4 -13 -12 -8 -6 -11 -14 -10 10 37 55 52 40 57
47 17 -9 -22 -57 -101 -129 -154 -175 -192 -210 -227 -240 -249 -254 -258 -263 -266 -268 -270 -272 -270 -269 -270 -268 -265 -262 -260 -258 -258 -261 -266 -273 -279 -284 -288 -291 -292 -291 -289 -285 -280 -274 -268 -264 -260 -257 -255 -254 -254 -254 -255 -258 -262 -267 -273 -278 -282 -283 -281 -277 -270 -262 -252 -241 -229 -217 -202 -186 -167 -147 -127 -106 -83 -56 -26 -20 -11 64 128 157 181 198 217 242 284 324 284 237 246 247 219 201 193 174 139 56 43 61 57 40 20 13 25 46 68 85 120 170 201
-2 -27 -52 -80 -106 -128 -148 -167 -184 -198 -211 -224 -232 -238 -247 -256 -265 -273 -279 -282 -283 -281 -280 -279 -277 -273 -270 -267 -264 -262 -262 -263 -264 -266 -267 -268 -268 -266 -262 -256 -250 -241 -232 -224 -218 -213 -209 -208 -208 -210 -213 -216 -220 -225 -232 -240 -246 -251 -253 -253 -249 -244 -236 -226 -214 -202 -190 -175 -158 -139 -117 -95 -70 -41 -7 36 66 97 159 208 246 297 370 448 497 534 539 479 464 489 459 375 353 277 216 222 218 185 149 127 101 84 78 82 91 99 129 224 284 276
-51 -71 -91 -108 -123 -137 -149 -159 -168 -174 -179 -182 -187 -195 -207 -219 -229 -237 -244 -250 -254 -256 -258 -257 -255 -252 -249 -245 -242 -238 -235 -233 -232 -230 -229 -229 -227 -224 -219 -212 -204 -195 -185 -176 -169 -164 -161 -159 -160 -162 -167 -173 -179 -185 -192 -200 -208 -214 -218 -218 -216 -212 -206 -196 -186 -175 -163 -148 -131 -111 -89 -64 -34 1 40 86 133 206 283 302 351 435 491 515 531 553 514 481 514 501 436 473 558 515 509 501 436 307 225 178 138 128 109 88 74 88 155 219 251 251
-84 -95 -104 -110 -117 -122 -124 -125 -123 -121 -121 -121 -124 -132 -146 -160 -174 -180 -186 -198 -204 -205 -207 -209 -208 -205 -200 -195 -192 -188 -184 -181 -179 -177 -176 -175 -173 -172 -167 -161 -153 -144 -137 -131 -124 -118 -111 -108 -107 -109 -114 -123 -131 -138 -147 -156 -165 -172 -179 -183 -183 -180 -175 -168 -160 -150 -138 -123 -106 -86 -63 -35 -2 38 87 139 204 316 463 571 631 596 506 458 457 514 508 444 418 391 373 391 427 454 474 498 584 531 404 281 160 122 95 57 44 69 131 197 222 234
-94 -98 -98 -97 -93 -89 -82 -71 -62 -56 -47 -37 -38 -50 -64 -72 -61 -65 -117 -139 -137 -138 -139 -138 -136 -132 -128 -123 -122 -122 -120 -118 -115 -116 -117 -118 -117 -117 -114 -109 -103 -95 -86 -68 -46 -29 -34 -47 -46 -46 -55 -68 -81 -90 -103 -115 -125 -135 -143 -150 -153 -153 -150 -145 -138 -128 -115 -100 -83 -63 -39 -11 23 67 114 156 238 351 481 593 599 541 443 391 360 343 339 346 345 321 313 325 331 323 322 344 431 472 414 311 189 141 123 82 63 96 147 204 235 241
-84 -80 -75 -67 -55 -42 -26 -13 -4 12 32 51 56 44 32 19 19 4 -36 -54 -57 -57 -50 -44 -44 -39 -33 -37 -45 -37 -31 -35 -39 -46 -53 -59 -62 -61 -62 -62 -55 -51 -41 -8 15 24 19 2 4 14 4 -11 -1 -7 -51 -78 -91 -104 -114 -122 -128 -129 -128 -123 -117 -107 -95 -80 -63 -43 -21 6 39 83 130 162 224 346 460 472 436 412 385 363 321 294 334 367 335 297 276 277 285 270 257 252 255 267 270 265 213 134 89 71 88 112 132 174 234 261
-65 -56 -45 -28 -8 14 35 56 77 98 113 110 87 88 104 87 62 45 36 29 26 28 42 57 64 73 81 77 70 75 76 65 51 35 18 4 1 7 -7 -18 -14 -8 -3 7 40 69 77 76 91 89 49 33 22 0 -25 -44 -62 -78 -90 -99 -106 -109 -109 -106 -100 -90 -77 -63 -47 -29 -8 17 51 86 81 107 215 318 393 375 333 312 295 287 291 347 430 478 404 299 275 277 275 261 237 221 218 269 329 360 346 230 146 110 99 101 108 143 220 276
-29 -19 -9 15 49 75 99 124 148 165 171 188 213 240 207 172 144 122 118 112 115 125 146 160 173 189 201 198 189 177 166 157 138 105 85 65 46 31 21 6 -8 -9 -10 8 70 108 134 211 356 318 123 65 63 26 -6 -24 -41 -58 -71 -81 -88 -93 -93 -90 -85 -75 -63 -50 -34 -18 0 22 50 71 72 80 134 197 223 209 193 200 236 263 282 389 504 506 464 364 297 271 255 255 259 273 269 287 348 398 422 324 185 133 110 91 97 127 184 261
-4 -11 -23 12 107 151 153 167 184 170 187 280 371 441 453 405 259 124 76 73 130 202 270 293 296 337 365 368 391 374 357 341 266 206 174 120 89 66 46 28 45 78 108 141 155 175 264 377 437 387 215 100 42 -2 -1 -10 -29 -43 -56 -67 -75 -79 -80 -78 -72 -63 -53 -40 -24 -11 -7 17 52 66 78 97 129 194 240 264 302 324 340 338 336 390 467 517 537 453 357 329 321 313 317 330 327 323 351 378 393 361 242 163 134 117 112 104 109 179
32 75 126 177 213 222 240 292 356 365 325 350 374 386 354 215 97 40 32 59 158 285 402 496 512 527 539 593 645 602 574 531 469 407 284 141 68 23 99994 2 42 54 56 95 172 284 373 409 367 245 155 133 74 -2 -7 -3 -20 -35 -46 -56 -63 -68 -70 -68 -63 -55 -45 -33 -19 -5 10 32 57 78 90 108 135 212 310 385 447 420 365 329 370 466 524 541 499 444 409 382 363 350 344 337 335 337 348 360 380 413 368 273 212 169 153 143 116 137
162 187 192 194 220 287 374 421 406 362 354 346 296 250 184 97 50 53 94 159 269 408 538 637 661 676 642 581 530 486 453 383 314 247 177 105 49 21 9 9 21 58 177 339 425 459 448 404 336 222 123 118 99 50 22 0 -17 -29 -40 -49 -56 -61 -63 -62 -56 -49 -39 -26 -13 -8 3 31 57 77 96 125 149 189 281 388 486 471 373 366 409 475 536 580 583 530 472 408 366 345 336 339 356 380 405 426 444 480 477 367 265 208 175 157 139 147
248 292 345 431 532 612 620 519 424 441 456 421 381 298 173 66 54 91 175 282 395 497 546 529 522 620 632 482 373 287 238 215 182 143 108 73 35 18 16 29 64 131 276 506 590 532 454 359 274 207 173 139 92 50 8 -10 -14 -25 -35 -44 -51 -57 -58 -56 -51 -44 -35 -23 -9 1 16 38 58 69 86 114 141 169 253 376 462 495 416 358 374 436 551 633 660 597 492 409 361 341 341 361 397 446 480 497 505 503 467 377 280 218 177 152 145 151
347 461 547 631 761 811 705 597 530 576 646 650 582 424 268 116 70 118 244 421 561 605 465 369 343 395 459 385 284 171 102 82 57 37 37 35 19 19 43 93 179 302 437 531 529 472 400 317 247 191 150 118 72 18 -1 -3 -12 -22 -31 -40 -47 -52 -54 -52 -47 -40 -31 -20 -9 4 21 38 58 74 85 107 142 167 208 310 397 461 457 400 395 410 508 607 624 585 497 437 378 349 358 400 459 506 516 490 475 452 385 315 240 185 162 151 152 161
408 539 670 771 820 771 682 580 529 538 590 589 503 386 255 154 127 170 284 493 609 590 517 440 346 279 250 184 113 65 39 29 29 44 60 66 103 176 242 297 398 511 572 561 485 415 364 299 227 171 129 107 73 27 11 2 -10 -19 -28 -36 -43 -48 -49 -48 -44 -38 -29 -18 -6 7 21 38 55 70 80 96 122 150 181 241 319 390 449 473 484 439 447 525 567 593 546 460 387 367 413 492 594 633 586 524 468 402 314 240 180 159 149 148 155 167
493 607 755 819 807 705 576 410 337 351 384 428 363 258 169 139 182 264 373 512 568 498 411 354 301 254 189 111 73 59 46 48 83 127 163 208 256 321 387 446 534 627 617 515 433 389 350 299 229 168 128 96 75 53 29 10 -4 -14 -23 -32 -39 -44 -46 -45 -42 -36 -28 -17 -6 6 21 39 55 65 79 99 122 149 174 208 292 389 409 429 500 507 485 482 462 473 464 404 380 403 490 601 667 660 616 614 648 559 339 215 163 150 152 158 171 201
652 681 678 641 619 591 564 482 349 270 216 231 214 159 149 190 312 473 600 661 594 515 474 389 262 184 129 90 80 67 61 68 118 197 278 362 431 513 607 702 783 755 658 587 553 487 402 316 224 128 79 63 60 52 30 13 2 -8 -17 -26 -34 -39 -42 -42 -40 -34 -27 -18 -9 2 19 38 54 73 97 113 125 146 172 197 276 413 479 522 549 542 538 511 457 440 458 469 494 605 724 691 603 528 473 413 429 454 307 183 154 151 157 166 185 245
411 413 448 486 560 647 739 741 531 351 256 217 201 196 218 286 397 521 624 682 580 400 306 237 140 78 59 59 65 66 78 128 225 336 441 544 621 677 702 696 714 679 579 512 464 396 335 272 205 120 67 58 53 46 30 14 4 -4 -13 -22 -30 -36 -39 -40 -38 -34 -28 -19 -10 -5 11 34 52 71 101 127 134 148 174 202 251 366 481 562 597 557 502 459 453 498 549 594 670 786 852 766 601 546 543 477 395 305 213 162 147 149 155 182 246 348
573 659 703 691 707 746 762 756 652 484 418 406 382 357 334 382 525 629 661 578 433 267 158 117 81 60 55 55 58 80 135 233 342 403 434 528 650 739 774 707 615 507 442 402 362 328 279 220 173 117 62 49 55 44 27 15 6 -2 -11 -20 -28 -34 -38 -39 -38 -35 -29 -21 -10 -6 0 25 49 66 95 134 148 153 171 208 270 354 442 508 557 494 392 362 373 419 478 542 660 795 772 671 608 562 510 437 408 331 214 169 154 147 173 246 339 446
645 704 664 633 639 645 694 791 815 661 587 620 619 550 472 436 491 516 482 401 287 181 111 83 70 65 59 59 95 186 295 404 468 493 487 533 675 759 758 727 709 616 540 525 521 492 385 221 139 98 62 50 59 53 29 15 6 -2 -11 -19 -26 -32 -36 -39 -38 -35 -30 -23 -13 -6 -5 11 41 64 87 120 149 165 200 271 333 367 409 465 499 471 376 340 381 468 573 605 631 698 667 547 462 428 409 388 347 258 196 161 142 160 236 308 373 465
612 603 505 410 443 553 682 736 650 590 621 692 745 602 455 442 463 495 435 284 181 137 142 149 124 97 98 143 219 333 447 550 608 609 600 600 673 756 703 622 618 624 665 666 656 571 425 267 144 87 53 30 29 41 31 17 7 -3 -11 -19 -27 -33 -37 -40 -41 -38 -34 -27 -18 -6 -5 -1 27 59 84 113 144 176 227 307 366 335 310 331 322 299 291 323 406 504 624 731 788 779 721 651 594 588 565 522 446 302 201 153 150 205 326 434 467 511
459 384 329 363 479 624 731 792 652 469 480 524 597 560 440 414 400 407 385 235 141 143 143 138 108 98 186 305 394 492 593 631 600 563 569 600 664 766 758 643 552 431 405 421 472 464 392 293 156 89 56 29 18 30 31 14 1 -3 -9 -18 -26 -33 -38 -42 -43 -42 -39 -32 -24 -13 -5 -6 11 48 77 103 131 170 227 274 299 272 222 219 237 242 265 343 438 545 721 950 975 885 820 768 759 712 580 474 368 232 144 130 163 255 370 473 519 558
290 309 392 498 588 655 725 800 761 525 386 360 387 430 426 397 306 247 216 172 156 141 135 151 183 215 305 454 554 604 574 490 402 367 414 452 489 584 679 708 703 538 394 319 300 317 304 278 194 118 75 49 37 33 32 17 3 -2 -9 -17 -25 -33 -39 -44 -47 -47 -44 -38 -31 -22 -11 -7 -3 27 63 88 114 154 190 213 200 177 192 221 261 292 310 368 473 599 749 910 964 879 775 661 601 580 485 356 245 170 146 150 188 300 430 479 505 617
282 346 414 457 491 554 645 734 826 671 453 382 332 299 270 276 278 295 269 206 162 145 184 275 434 510 519 610 675 641 564 512 451 361 340 363 427 516 600 694 750 685 568 432 303 261 257 262 225 150 102 72 51 36 34 29 16 5 -6 -15 -24 -32 -40 -46 -50 -52 -50 -45 -39 -31 -20 -10 -3 18 50 61 59 102 162 191 213 259 297 307 318 322 328 369 489 639 789 863 830 773 721 667 623 587 493 339 228 160 132 146 237 359 451 499 523 585
228 293 359 453 509 524 561 611 664 654 627 578 459 411 426 442 483 519 471 349 257 205 223 308 448 578 673 723 700 658 658 656 612 481 362 321 343 439 554 672 674 597 448 304 217 187 201 190 159 132 116 92 68 53 43 38 26 11 -2 -13 -23 -32 -41 -48 -54 -56 -56 -53 -47 -38 -28 -17 -2 19 45 69 68 88 159 226 298 363 411 434 439 382 332 357 462 644 740 726 718 726 744 737 625 533 486 374 242 169 144 142 224 389 481 498 524 562
143 165 220 294 362 385 398 416 439 491 574 658 636 626 641 689 802 772 586 433 326 233 205 281 402 554 637 647 597 519 567 632 660 603 447 343 273 296 366 464 499 451 354 225 154 124 119 112 109 125 147 134 92 64 48 44 36 19 4 -9 -21 -33 -43 -51 -57 -61 -62 -59 -54 -46 -36 -25 -10 2 18 63 87 84 141 229 296 357 463 537 511 427 356 372 460 615 669 567 511 549 619 699 605 456 409 344 219 149 137 194 328 460 536 524 533 608
211 151 151 169 211 244 291 327 339 398 471 570 638 677 726 803 871 843 651 465 325 239 223 274 389 532 641 637 561 432 446 584 660 693 623 506 353 247 241 259 275 236 184 130 105 116 141 161 203 254 244 195 146 112 90 68 44 23 5 -9 -20 -32 -44 -53 -60 -66 -67 -65 -60 -52 -43 -30 -13 -7 -12 36 104 114 137 246 339 355 437 545 491 402 416 503 637 704 635 528 443 427 436 486 469 406 357 271 193 154 136 167 340 487 541 596 690 718
311 270 247 241 256 293 397 496 539 548 463 480 562 635 736 851 891 800 652 470 354 310 272 270 338 402 460 453 414 381 389 482 582 716 747 704 595 388 298 241 198 181 162 141 133 164 209 245 293 325 307 230 172 144 112 76 50 28 8 -7 -20 -33 -44 -54 -62 -68 -71 -69 -64 -57 -47 -35 -17 -1 11 53 117 147 149 240 369 441 510 517 474 412 448 604 735 794 710 625 563 495 405 360 342 335 322 235 164 157 162 181 286 438 534 629 756 789
489 432 382 350 346 386 476 604 692 752 740 715 681 709 787 829 816 726 603 486 424 414 395 355 343 338 320 282 262 252 245 257 279 350 463 573 609 543 487 362 286 245 192 160 173 202 214 248 325 351 314 244 166 120 85 73 60 28 4 -6 -19 -33 -44 -54 -63 -69 -73 -72 -66 -59 -49 -36 -21 -12 15 77 134 184 216 267 358 449 553 582 525 478 479 581 664 661 647 667 651 594 526 441 346 265 208 163 153 155 169 214 297 414 539 631 672 676
521 471 431 402 385 418 486 532 543 574 605 658 750 872 913 858 755 637 538 460 432 424 427 388 330 288 240 137 83 78 80 97 111 147 236 301 344 384 424 400 335 254 197 164 155 177 212 259 321 352 316 259 177 116 107 95 66 27 -4 -11 -18 -32 -43 -52 -61 -68 -71 -70 -65 -58 -48 -33 -13 -6 16 81 145 202 268 349 434 495 590 675 624 563 544 542 549 533 522 549 570 513 433 357 282 215 172 160 154 159 195 271 374 499 642 677 609 544
423 439 417 367 326 320 395 463 495 564 613 680 760 876 934 911 856 734 599 486 412 323 274 241 215 208 209 194 197 182 172 139 86 64 60 76 119 170 227 251 221 205 174 151 163 212 276 323 349 346 324 302 234 145 117 96 68 40 10 -8 -18 -30 -40 -50 -58 -64 -67 -65 -61 -54 -44 -31 -17 5 55 111 158 229 330 442 542 571 608 716 741 662 582 516 458 408 397 413 485 506 446 361 258 192 165 157 157 162 220 333 432 518 667 770 683 555
507 504 456 349 261 241 345 521 561 532 494 500 551 656 781 802 732 656 599 543 448 345 300 283 283 298 323 368 450 491 477 381 239 147 75 52 44 50 70 103 146 195 185 189 226 279 348 371 358 327 297 292 271 187 122 91 64 41 18 -1 -14 -26 -36 -44 -52 -58 -60 -59 -54 -47 -37 -21 -10 -9 40 113 163 224 336 451 550 627 715 780 759 668 574 558 540 438 366 345 379 416 378 316 223 170 166 163 162 192 263 383 497 555 654 818 803 635
651 685 597 447 292 216 200 293 360 399 479 586 680 751 781 741 722 700 640 596 548 518 486 476 471 473 504 566 612 606 576 545 459 366 263 173 72 22 27 40 66 112 180 308 424 485 472 402 341 278 240 219 212 173 119 86 60 38 17 2 -9 -21 -30 -38 -45 -49 -51 -50 -46 -39 -29 -17 -4 26 72 114 160 217 301 396 481 572 733 862 788 677 626 642 645 541 401 341 318 298 262 233 206 180 168 172 186 229 305 406 552 675 765 821 792 709
612 659 604 497 336 206 151 177 270 374 487 662 822 874 802 618 547 575 667 738 637 523 498 504 505 538 583 589 538 448 423 511 527 487 455 404 223 55 24 23 37 77 149 314 496 555 546 458 347 268 217 176 159 145 111 80 56 31 3 -6 -6 -14 -21 -28 -33 -37 -39 -37 -34 -30 -20 -9 -8 9 57 100 138 213 312 353 391 476 585 655 603 539 601 670 623 523 417 374 368 349 337 321 281 214 168 160 174 217 295 419 598 745 729 653 589 591
511 592 607 544 413 220 133 136 254 393 491 611 729 734 650 501 396 446 492 459 395 349 395 476 539 601 642 610 477 376 340 383 441 436 409 390 290 101 18 18 31 67 128 258 489 638 681 558 348 264 219 176 142 121 99 72 50 30 10 -2 -4 -8 -13 -18 -22 -25 -25 -25 -23 -20 -13 -3 -3 -5 31 81 111 152 195 229 289 360 423 410 386 452 527 568 559 520 523 548 535 505 460 383 288 211 170 156 165 231 341 479 612 721 698 568 493 445
420 497 570 568 485 267 127 150 259 421 531 616 716 751 648 522 353 279 286 266 268 313 401 512 614 699 693 564 432 365 325 325 399 440 407 356 277 140 17 10 35 53 113 213 369 522 533 463 364 311 255 180 97 78 86 52 12 1 -1 -1 -1 -2 -4 -6 -9 -10 -10 -9 -7 -5 -3 -2 -1 -6 6 51 87 101 111 129 147 164 186 203 283 358 375 452 587 648 665 671 632 586 508 393 281 187 160 159 160 215 346 484 585 663 706 622 500 371
309 360 420 429 384 267 125 140 241 375 494 560 621 694 681 606 462 338 268 218 234 287 370 477 606 688 686 549 450 371 314 300 350 427 434 425 365 241 65 99990 26 46 79 117 173 275 309 279 285 293 213 122 96 95 70 28 0 -3 -1 -1 -1 -1 -1 -1 -1 -1 -2 -1 -1 -1 1 7 0 -11 -10 25 60 53 49 53 55 57 51 50 122 207 260 349 533 639 635 583 481 443 397 297 212 172 162 173 217 308 459 579 585 595 679 665 513 383
175 207 237 254 230 178 121 140 216 314 432 529 618 630 566 499 407 305 231 194 203 226 273 339 443 522 571 576 551 477 375 274 217 278 343 429 406 279 147 29 13 21 25 34 43 84 138 149 145 145 144 101 76 73 38 -4 -7 -1 -1 -1 -2 -4 -6 -6 -3 5 14 5 -12 -9 12 41 40 41 60 67 30 8 16 22 26 34 58 75 98 129 157 197 309 454 504 501 429 340 261 201 173 162 166 210 298 433 531 505 479 516 587 636 561 469
113 144 157 130 93 70 92 156 226 295 374 437 444 375 273 211 182 171 177 212 251 240 231 247 297 371 440 497 512 480 408 318 196 173 228 341 433 384 278 113 21 14 8 7 1 6 26 41 59 95 128 99 64 52 35 9 -2 -1 -1 -1 1 16 31 46 62 74 86 78 62 70 78 82 87 78 62 52 43 43 52 59 59 85 177 248 299 293 211 194 216 280 310 307 270 215 181 165 163 171 198 277 434 561 582 501 397 417 476 527 550 556
80 88 90 82 72 72 87 138 189 210 235 255 221 180 169 187 221 268 330 384 401 345 248 217 233 286 331 348 334 310 281 246 159 103 133 207 347 381 315 196 66 24 4 99990 5 99991 7 45 61 59 47 24 13 5 -1 -3 -1 -2 -5 -7 9 55 84 97 107 106 108 105 115 138 135 132 133 128 143 151 146 153 161 155 167 218 326 459 534 523 444 370 285 233 213 204 200 180 169 165 175 226 298 380 540 702 645 499 371 317 323 334 371 412
95 75 67 64 64 69 79 108 153 174 183 206 260 326 387 434 468 490 498 476 452 409 301 234 219 195 143 116 113 133 151 110 70 59 67 86 167 251 254 212 134 80 24 16 42 22 99991 3 7 28 24 -1 -5 -2 -1 -1 -3 -1 23 50 70 91 110 143 167 120 93 128 188 230 211 166 149 163 235 285 272 287 325 340 365 459 573 655 652 603 533 444 367 325 307 276 219 176 178 179 198 281 396 468 561 710 693 514 388 319 279 265 249 235
199 177 162 120 90 89 97 101 140 199 256 329 431 510 566 615 650 676 687 620 528 450 400 363 328 276 178 103 101 113 104 85 97 83 45 30 61 147 175 143 116 94 61 41 34 18 3 -3 -2 -1 -3 -3 -1 -1 -1 -1 -1 10 38 64 85 113 147 192 255 284 296 331 340 323 290 235 210 222 298 429 493 520 514 495 543 633 702 659 534 451 396 379 414 470 442 303 206 183 183 207 246 323 478 601 667 711 681 527 392 390 409 421 404 345
245 253 242 218 212 202 184 161 177 209 252 317 413 511 572 627 696 752 793 728 596 602 654 599 534 487 426 355 324 301 268 256 282 257 140 72 56 52 50 49 56 59 53 40 23 0 -5 -1 -1 -1 -1 -1 -1 -1 -2 -3 2 26 49 69 99 143 196 288 399 489 512 485 417 355 296 268 285 299 332 498 646 671 660 620 657 691 616 499 406 364 390 461 541 502 379 242 180 193 232 271 305 361 511 702 767 732 639 577 645 694 667 640 583 496