ncols        90
nrows        90
xllcorner    -84.92500000001517
yllcorner    78.81249999998516
cellsize     0.004166666667
NODATA_value -32767
-77 -76 -76 -76 -76 -76 -76 -76 -75 -75 -75 -74 -74 -73 -71 -70 -70 -72 -74 -76 -77 -78 -78 -79 -79 -79 -79 -79 -79 -79 -78 -76 -74 -72 -72 -72 -72 -73 -75 -77 -78 -80 -81 -83 -84 -86 -88 -90 -92 -94 -96 -98 -100 -103 -105 -107 -109 -111 -113 -114 -116 -118 -120 -121 -123 -125 -126 -128 -130 -131 -133 -135 -137 -138 -140 -142 -144 -145 -147 -149 -150 -151 -153 -154 -155 -157 -158 -159 -159 -160
-77 -77 -77 -77 -78 -78 -78 -79 -79 -80 -81 -82 -83 -84 -85 -84 -83 -82 -81 -80 -80 -80 -80 -80 -79 -78 -78 -79 -79 -78 -74 -71 -71 -71 -72 -74 -75 -77 -77 -78 -79 -81 -82 -83 -85 -86 -88 -90 -92 -93 -95 -97 -99 -101 -102 -104 -105 -107 -108 -110 -112 -113 -115 -117 -118 -120 -121 -123 -125 -126 -128 -130 -131 -133 -135 -137 -138 -140 -142 -143 -145 -146 -148 -149 -150 -152 -153 -154 -155 -156
-78 -78 -79 -79 -79 -79 -79 -79 -79 -80 -79 -79 -79 -79 -79 -81 -85 -86 -85 -84 -84 -84 -84 -84 -83 -81 -80 -78 -77 -75 -74 -74 -74 -74 -75 -76 -77 -77 -78 -79 -80 -81 -82 -83 -85 -86 -88 -89 -91 -93 -94 -95 -97 -98 -99 -100 -102 -103 -104 -105 -107 -108 -110 -111 -113 -114 -116 -117 -119 -121 -122 -124 -126 -128 -129 -131 -133 -135 -136 -138 -140 -141 -143 -144 -146 -148 -149 -150 -151 -153
-80 -80 -80 -80 -80 -81 -81 -81 -82 -82 -83 -85 -86 -86 -85 -87 -88 -88 -89 -88 -87 -86 -86 -85 -83 -80 -78 -76 -77 -79 -82 -83 -82 -81 -79 -78 -77 -77 -78 -79 -80 -81 -82 -83 -85 -86 -87 -88 -90 -91 -92 -93 -94 -95 -96 -97 -98 -99 -99 -100 -101 -101 -102 -104 -105 -107 -109 -111 -113 -115 -116 -118 -120 -122 -123 -125 -127 -128 -130 -131 -133 -135 -137 -139 -141 -143 -145 -147 -149 -151
-81 -81 -81 -81 -81 -81 -82 -82 -82 -82 -83 -86 -89 -90 -89 -89 -89 -89 -89 -88 -87 -85 -83 -81 -79 -77 -75 -75 -75 -76 -77 -78 -79 -79 -79 -80 -80 -80 -81 -82 -83 -83 -84 -85 -86 -87 -88 -89 -90 -91 -92 -93 -94 -95 -96 -97 -98 -98 -99 -99 -99 -99 -99 -101 -103 -105 -107 -108 -110 -111 -112 -113 -114 -116 -117 -118 -119 -120 -121 -122 -123 -124 -126 -127 -129 -131 -134 -137 -140 -143
-82 -82 -82 -83 -83 -83 -83 -84 -84 -84 -84 -85 -85 -85 -86 -87 -86 -86 -85 -84 -83 -82 -81 -80 -79 -78 -78 -78 -78 -78 -78 -79 -80 -80 -81 -82 -82 -83 -84 -85 -86 -86 -87 -88 -89 -90 -91 -92 -93 -94 -95 -95 -96 -97 -97 -98 -99 -99 -100 -100 -101 -101 -102 -104 -105 -107 -108 -109 -110 -110 -111 -112 -112 -113 -114 -114 -115 -115 -115 -115 -116 -116 -117 -117 -118 -118 -119 -119 -121 -123
-83 -83 -83 -84 -84 -84 -84 -85 -85 -84 -84 -83 -83 -83 -83 -83 -82 -82 -82 -81 -81 -80 -79 -78 -78 -78 -78 -78 -79 -79 -80 -81 -82 -82 -83 -84 -85 -86 -87 -88 -89 -90 -91 -92 -93 -94 -94 -95 -95 -96 -96 -96 -97 -97 -97 -98 -98 -99 -100 -100 -100 -100 -101 -101 -102 -103 -104 -105 -105 -106 -106 -106 -107 -107 -107 -107 -107 -107 -107 -107 -108 -108 -108 -109 -109 -110 -110 -111 -112 -114
-83 -84 -84 -84 -84 -84 -84 -84 -84 -84 -84 -83 -83 -83 -83 -83 -82 -82 -82 -81 -80 -78 -76 -75 -75 -75 -76 -77 -78 -79 -80 -82 -83 -84 -85 -87 -88 -89 -90 -92 -93 -94 -95 -96 -96 -96 -96 -96 -96 -96 -96 -96 -97 -97 -97 -98 -98 -98 -99 -99 -99 -99 -99 -99 -98 -98 -98 -98 -97 -97 -96 -96 -95 -94 -94 -93 -92 -91 -91 -90 -89 -89 -88 -87 -87 -86 -85 -85 -85 -84
-84 -85 -85 -85 -85 -85 -86 -86 -86 -86 -86 -87 -87 -87 -87 -87 -87 -86 -84 -84 -83 -83 -82 -81 -81 -81 -80 -80 -80 -81 -83 -84 -86 -88 -89 -91 -93 -94 -96 -96 -96 -96 -96 -96 -96 -96 -96 -96 -96 -96 -96 -97 -97 -97 -97 -97 -97 -97 -97 -97 -97 -96 -96 -95 -94 -94 -93 -92 -90 -89 -88 -87 -85 -84 -82 -81 -79 -78 -76 -74 -72 -70 -67 -65 -62 -60 -58 -55 -53 -50
-85 -86 -86 -86 -87 -87 -87 -87 -88 -89 -89 -89 -89 -89 -89 -86 -84 -81 -79 -80 -81 -83 -85 -86 -85 -84 -82 -81 -82 -83 -85 -87 -88 -90 -92 -94 -95 -96 -96 -97 -97 -97 -97 -97 -97 -97 -97 -97 -97 -97 -97 -97 -97 -97 -97 -97 -97 -97 -96 -96 -95 -94 -93 -92 -91 -90 -89 -87 -86 -84 -83 -81 -79 -77 -75 -73 -71 -68 -64 -61 -57 -53 -49 -45 -42 -37 -33 -28 -23 -18
-86 -86 -87 -87 -87 -87 -87 -88 -88 -88 -88 -88 -88 -88 -82 -76 -75 -75 -77 -80 -83 -84 -82 -80 -79 -78 -78 -80 -83 -86 -89 -92 -94 -96 -97 -98 -98 -98 -98 -98 -98 -98 -98 -98 -98 -98 -97 -97 -97 -98 -98 -98 -97 -97 -97 -97 -96 -96 -95 -94 -93 -92 -91 -90 -89 -87 -85 -84 -82 -80 -78 -76 -74 -71 -67 -64 -60 -56 -51 -47 -43 -38 -33 -28 -23 -18 -12 -6 -1 7
-87 -87 -87 -88 -88 -88 -88 -88 -89 -89 -89 -89 -89 -87 -82 -79 -78 -78 -79 -78 -78 -77 -76 -75 -76 -79 -84 -87 -89 -91 -94 -95 -96 -97 -97 -98 -98 -99 -99 -100 -100 -101 -101 -101 -101 -101 -101 -100 -99 -99 -99 -98 -98 -97 -97 -96 -95 -94 -93 -92 -91 -90 -88 -87 -85 -83 -81 -79 -76 -74 -71 -68 -65 -61 -58 -54 -49 -43 -38 -32 -27 -22 -18 -13 -5 4 20 42 55 66
-89 -89 -89 -88 -88 -88 -88 -89 -91 -91 -91 -91 -91 -88 -85 -84 -85 -86 -87 -88 -89 -88 -86 -85 -86 -89 -91 -91 -91 -91 -92 -94 -94 -94 -93 -93 -94 -95 -96 -98 -99 -101 -102 -103 -103 -102 -101 -100 -99 -99 -98 -97 -96 -95 -94 -93 -92 -91 -90 -89 -87 -86 -84 -82 -79 -77 -74 -72 -69 -67 -64 -61 -58 -55 -52 -49 -44 -34 -24 -13 -5 -2 5 22 39 58 85 116 136 146
-92 -92 -92 -92 -92 -92 -93 -93 -93 -93 -93 -93 -93 -92 -91 -91 -92 -93 -94 -93 -92 -88 -85 -84 -86 -88 -89 -90 -91 -92 -93 -93 -93 -93 -94 -94 -94 -95 -95 -96 -96 -97 -97 -97 -97 -96 -96 -95 -95 -94 -93 -92 -91 -90 -89 -88 -87 -86 -85 -83 -82 -79 -76 -74 -71 -68 -66 -63 -61 -58 -56 -55 -53 -48 -38 -23 -4 11 16 17 17 20 29 47 71 100 131 152 159 160
-93 -94 -94 -94 -94 -94 -94 -93 -93 -94 -94 -95 -94 -91 -90 -91 -92 -92 -90 -87 -87 -87 -87 -88 -89 -90 -91 -92 -92 -93 -93 -94 -94 -94 -95 -95 -95 -95 -94 -94 -94 -94 -93 -93 -92 -92 -91 -90 -90 -89 -88 -87 -86 -85 -84 -82 -81 -78 -76 -74 -71 -67 -64 -60 -57 -53 -51 -48 -45 -43 -40 -37 -32 -21 -8 4 21 40 54 63 73 79 81 84 92 103 117 130 141 148
-95 -95 -95 -95 -96 -96 -96 -96 -96 -95 -93 -93 -95 -95 -96 -96 -96 -94 -89 -88 -88 -90 -92 -93 -93 -94 -94 -94 -95 -95 -95 -95 -95 -95 -95 -95 -94 -94 -93 -93 -92 -91 -90 -90 -89 -88 -87 -86 -85 -84 -83 -82 -80 -79 -76 -73 -69 -65 -61 -57 -52 -47 -43 -39 -35 -31 -28 -24 -20 -17 -13 -7 -1 9 21 40 65 85 94 97 103 117 136 154 167 179 190 201 210 216
-99 -99 -99 -99 -99 -99 -100 -99 -95 -90 -89 -89 -88 -88 -89 -90 -90 -90 -89 -90 -91 -93 -94 -96 -96 -96 -96 -96 -96 -96 -96 -95 -95 -94 -94 -93 -92 -92 -91 -90 -89 -88 -87 -86 -85 -84 -83 -82 -81 -79 -78 -77 -75 -71 -67 -61 -55 -49 -43 -37 -31 -25 -19 -13 -9 -7 -5 -3 -1 -1 2 13 32 55 79 101 121 133 135 137 151 177 204 225 241 255 266 274 283 295
-105 -105 -105 -105 -104 -104 -104 -103 -101 -99 -98 -97 -95 -95 -94 -94 -95 -96 -97 -99 -100 -101 -101 -100 -99 -99 -98 -97 -97 -96 -95 -94 -94 -93 -92 -91 -90 -89 -88 -87 -86 -85 -84 -83 -82 -80 -79 -78 -76 -75 -72 -69 -65 -60 -54 -47 -41 -34 -27 -19 -11 -5 0 6 8 8 5 3 3 7 19 46 85 124 147 153 158 166 176 193 218 253 283 303 318 325 322 317 319 330
-111 -111 -110 -110 -109 -109 -109 -107 -103 -100 -99 -98 -98 -97 -97 -97 -97 -97 -98 -98 -98 -98 -98 -98 -97 -97 -96 -96 -95 -94 -93 -93 -92 -91 -90 -89 -88 -87 -86 -84 -83 -82 -80 -79 -77 -76 -74 -71 -68 -65 -61 -56 -51 -46 -40 -34 -28 -23 -16 -10 -4 -1 5 12 15 17 20 22 23 25 41 72 107 132 141 143 149 162 181 206 239 272 298 319 335 343 343 343 345 348
-113 -113 -112 -111 -110 -110 -109 -108 -107 -106 -104 -102 -100 -99 -98 -98 -97 -97 -97 -96 -96 -96 -95 -95 -94 -94 -93 -93 -92 -91 -91 -90 -89 -88 -87 -86 -85 -83 -82 -81 -79 -77 -74 -71 -68 -64 -61 -57 -53 -49 -44 -39 -35 -30 -26 -22 -18 -14 -10 -7 -2 5 18 32 41 47 51 51 49 48 52 60 73 93 116 136 153 169 186 203 223 246 269 292 312 328 340 347 347 342
-116 -116 -115 -112 -108 -108 -109 -107 -105 -102 -98 -96 -96 -96 -96 -95 -95 -95 -94 -94 -94 -93 -93 -92 -91 -91 -90 -90 -89 -88 -87 -86 -85 -84 -83 -82 -81 -79 -77 -75 -71 -67 -62 -58 -53 -49 -44 -39 -35 -31 -27 -23 -18 -14 -8 -2 4 10 17 26 37 58 85 108 125 136 140 137 125 108 89 72 65 70 81 93 105 116 127 138 152 169 189 210 223 231 240 254 268 278
-112 -110 -107 -104 -102 -103 -106 -112 -113 -108 -103 -100 -98 -97 -96 -95 -94 -94 -93 -92 -91 -91 -90 -89 -88 -88 -87 -86 -85 -84 -83 -82 -81 -80 -78 -75 -72 -69 -65 -61 -56 -51 -45 -40 -34 -29 -23 -18 -13 -8 -4 0 6 12 19 26 36 49 63 79 101 129 154 168 167 159 156 155 149 134 110 87 78 81 91 107 125 138 142 142 142 144 147 149 148 149 154 166 181 193
-112 -110 -106 -102 -99 -99 -103 -107 -106 -103 -101 -100 -98 -97 -95 -94 -93 -92 -91 -90 -89 -87 -86 -85 -85 -84 -83 -82 -81 -79 -78 -77 -75 -72 -69 -65 -60 -55 -50 -45 -39 -34 -29 -23 -17 -10 -4 0 4 12 23 37 60 84 94 97 101 114 136 160 181 196 206 208 204 198 191 183 171 157 143 128 116 109 114 134 160 181 200 215 227 233 231 213 188 171 170 178 186 190
-114 -113 -111 -109 -107 -103 -103 -104 -103 -101 -99 -97 -96 -94 -93 -92 -90 -89 -88 -86 -85 -84 -83 -82 -80 -79 -78 -77 -76 -74 -73 -71 -68 -64 -59 -54 -48 -42 -37 -31 -25 -19 -13 -8 -2 6 16 31 52 77 100 119 137 151 160 166 173 182 192 202 210 219 233 253 267 264 249 232 225 223 219 204 183 164 153 149 157 177 208 243 274 300 310 299 281 273 281 290 287 274
-109 -108 -108 -108 -104 -100 -100 -99 -98 -97 -96 -94 -93 -91 -90 -88 -87 -86 -84 -83 -82 -80 -79 -78 -77 -75 -74 -73 -71 -69 -66 -63 -59 -55 -50 -43 -36 -30 -22 -15 -8 -3 4 11 20 36 58 79 99 116 133 150 165 177 188 198 209 220 228 229 225 231 253 283 304 307 297 292 297 303 306 303 295 276 245 218 209 216 232 254 280 303 313 313 315 326 341 353 358 358
-92 -92 -93 -94 -94 -94 -94 -93 -92 -91 -90 -89 -88 -86 -85 -84 -83 -82 -80 -79 -78 -77 -76 -74 -73 -72 -70 -69 -67 -65 -62 -60 -56 -53 -49 -45 -39 -32 -22 -9 -1 6 23 42 56 70 89 106 120 131 140 146 152 157 163 172 184 198 209 214 219 235 267 299 313 316 314 315 320 324 326 326 321 309 292 278 270 267 271 282 296 305 305 305 314 335 358 373 384 394
-82 -81 -81 -82 -82 -83 -83 -83 -83 -83 -83 -82 -81 -81 -80 -79 -79 -78 -77 -76 -75 -74 -72 -71 -70 -69 -67 -66 -64 -62 -60 -58 -56 -54 -52 -50 -47 -42 -31 -11 4 25 56 85 106 126 146 167 184 193 193 191 195 204 213 215 213 212 216 225 238 255 276 294 304 309 315 322 330 337 342 346 345 341 336 336 339 340 335 324 313 308 308 319 343 376 402 415 420 428
-80 -78 -77 -77 -77 -78 -78 -78 -78 -78 -78 -77 -77 -77 -77 -76 -76 -75 -74 -73 -72 -71 -70 -69 -67 -66 -65 -63 -60 -57 -53 -49 -45 -41 -36 -30 -24 -15 -5 6 20 45 76 109 141 172 196 213 224 232 236 243 258 278 289 287 283 284 294 305 305 290 274 272 280 293 305 317 330 348 365 377 380 377 377 381 389 392 388 382 380 383 393 409 437 464 477 482 486 498
-78 -77 -77 -77 -77 -77 -77 -76 -76 -76 -76 -76 -75 -75 -75 -74 -74 -73 -72 -71 -70 -69 -68 -67 -66 -64 -63 -60 -57 -53 -49 -44 -39 -33 -27 -22 -15 -8 0 10 27 55 89 125 162 195 220 239 253 260 265 277 295 312 320 319 315 315 318 319 316 309 302 296 293 294 300 310 327 352 377 391 391 388 394 409 426 438 448 456 462 467 476 492 512 530 544 557 571 586
-84 -83 -82 -81 -80 -79 -79 -78 -77 -77 -76 -76 -76 -75 -74 -74 -73 -72 -71 -70 -69 -68 -67 -66 -64 -63 -62 -59 -55 -50 -45 -40 -35 -29 -24 -19 -13 -6 0 10 28 54 87 126 168 200 222 243 263 282 298 312 323 328 328 325 322 319 317 317 319 321 323 323 325 329 335 346 362 381 397 405 409 415 427 445 464 482 500 517 532 545 558 572 584 594 603 611 619 627
-89 -88 -87 -85 -84 -83 -82 -81 -80 -79 -78 -77 -77 -76 -75 -74 -73 -72 -71 -70 -69 -68 -67 -65 -64 -62 -60 -57 -53 -48 -42 -36 -29 -23 -16 -8 -3 -1 0 12 33 56 83 119 150 172 187 208 235 258 276 290 298 301 297 291 286 285 288 297 310 325 340 355 368 379 389 401 415 428 440 451 462 473 487 502 519 538 558 577 592 605 616 623 629 632 634 636 638 638
-90 -90 -89 -88 -87 -86 -85 -84 -83 -82 -80 -79 -78 -77 -76 -75 -74 -73 -72 -71 -69 -68 -67 -66 -64 -63 -61 -58 -53 -49 -43 -37 -31 -24 -17 -10 -5 -2 4 18 29 43 67 98 123 143 161 180 196 206 201 189 188 202 224 245 261 275 291 312 332 352 372 392 408 421 434 448 461 474 487 500 514 530 550 569 583 596 606 614 619 625 632 636 637 634 631 627 624 616
-100 -98 -95 -93 -92 -90 -88 -87 -86 -84 -83 -82 -80 -79 -78 -77 -76 -74 -73 -72 -71 -69 -68 -67 -65 -64 -62 -60 -57 -53 -48 -42 -37 -32 -27 -22 -17 -12 -7 -2 6 19 37 57 77 97 117 134 146 151 149 147 150 160 181 217 260 299 330 352 371 387 402 416 430 444 459 475 491 509 530 549 566 582 597 607 615 620 625 627 629 629 629 628 624 617 607 596 582 564
-102 -101 -98 -97 -95 -93 -91 -90 -88 -87 -85 -84 -83 -81 -80 -79 -78 -77 -75 -74 -73 -71 -70 -68 -67 -65 -64 -61 -59 -55 -51 -47 -43 -39 -34 -29 -24 -20 -15 -10 -5 -1 3 11 21 32 43 57 75 101 131 155 172 189 214 251 292 332 363 385 403 418 430 441 451 464 480 497 517 542 570 593 610 621 626 624 619 614 611 608 605 602 596 587 574 561 552 544 531 505
-105 -103 -101 -99 -98 -96 -94 -92 -91 -89 -88 -87 -86 -85 -83 -82 -81 -80 -78 -77 -76 -74 -73 -71 -70 -68 -66 -65 -63 -60 -57 -54 -50 -46 -42 -38 -34 -30 -25 -21 -18 -14 -11 -7 -3 2 12 28 51 86 125 158 185 213 246 281 316 350 381 406 427 443 454 461 468 476 486 499 521 552 583 605 621 626 615 593 566 548 538 531 529 528 522 507 484 462 443 427 411 396
-110 -107 -104 -102 -100 -99 -97 -96 -94 -93 -92 -91 -89 -88 -87 -86 -84 -83 -82 -80 -79 -78 -76 -75 -73 -72 -70 -69 -67 -65 -63 -61 -58 -55 -51 -47 -43 -39 -34 -30 -25 -20 -16 -11 -7 -3 1 7 30 71 107 138 171 208 247 286 323 352 377 403 431 454 467 471 473 477 483 493 508 526 543 561 574 569 543 509 482 468 460 456 454 450 439 422 400 376 351 328 311 300
-113 -109 -106 -104 -103 -102 -101 -99 -98 -97 -96 -95 -93 -92 -91 -90 -89 -87 -86 -85 -83 -82 -81 -79 -78 -77 -75 -74 -72 -71 -69 -67 -66 -64 -62 -58 -54 -49 -44 -38 -32 -26 -19 -12 -5 -2 -1 6 27 49 71 104 147 190 231 267 293 311 333 374 424 451 449 436 429 434 446 456 464 473 485 502 512 506 487 460 433 409 392 384 381 373 356 331 311 301 293 283 271 258
-114 -111 -108 -107 -106 -105 -104 -103 -101 -100 -99 -98 -97 -96 -95 -94 -93 -92 -91 -90 -89 -88 -86 -85 -84 -83 -81 -80 -79 -78 -76 -75 -74 -72 -71 -69 -67 -63 -58 -52 -46 -40 -34 -28 -22 -17 -12 -6 1 11 32 63 99 137 176 217 256 286 311 331 349 369 388 407 427 444 457 462 461 460 463 467 462 448 429 405 377 349 326 311 300 291 282 273 263 254 245 234 223 212
-115 -112 -110 -109 -108 -107 -107 -106 -105 -104 -103 -103 -102 -101 -100 -100 -99 -98 -97 -96 -96 -95 -94 -93 -92 -91 -90 -89 -88 -87 -86 -86 -85 -84 -83 -82 -80 -76 -72 -67 -62 -56 -51 -45 -39 -33 -27 -21 -14 -6 5 23 53 96 144 185 220 247 265 274 286 305 329 356 385 412 428 428 420 415 412 403 385 356 326 308 300 292 281 267 254 242 230 219 210 202 194 186 178 169
-115 -113 -112 -112 -111 -110 -110 -109 -109 -109 -108 -108 -108 -107 -107 -107 -106 -106 -106 -105 -105 -104 -104 -103 -103 -102 -102 -101 -101 -101 -100 -100 -99 -98 -98 -97 -96 -93 -90 -86 -81 -76 -70 -64 -58 -52 -44 -36 -28 -18 -7 4 28 61 94 130 162 183 189 190 193 200 208 216 224 231 237 242 246 248 248 243 233 222 215 216 220 221 218 213 207 200 192 184 177 169 159 150 141 132
-115 -113 -113 -113 -112 -112 -112 -112 -112 -113 -113 -113 -113 -113 -114 -114 -114 -114 -114 -114 -115 -115 -115 -115 -114 -114 -114 -115 -115 -115 -115 -115 -115 -115 -115 -115 -115 -114 -113 -111 -107 -102 -96 -90 -84 -77 -69 -60 -51 -39 -28 -18 -8 4 14 27 39 49 55 57 55 52 51 54 58 62 64 66 71 78 83 82 74 66 68 77 88 98 105 110 112 113 115 117 118 117 111 103 95 84
-112 -112 -111 -111 -112 -112 -112 -113 -113 -114 -115 -115 -116 -117 -118 -119 -119 -120 -121 -122 -122 -123 -123 -124 -124 -125 -125 -126 -127 -128 -128 -129 -130 -130 -131 -131 -132 -132 -132 -132 -131 -129 -126 -122 -118 -113 -108 -103 -97 -91 -85 -79 -73 -66 -60 -54 -49 -44 -40 -37 -35 -33 -32 -30 -28 -26 -24 -22 -20 -18 -16 -15 -14 -13 -13 -11 -8 -5 -3 0 6 13 20 28 35 40 43 45 44 42
-106 -106 -106 -106 -107 -108 -109 -109 -111 -112 -113 -114 -116 -117 -118 -120 -121 -122 -124 -125 -126 -127 -128 -129 -130 -131 -133 -134 -135 -136 -138 -139 -140 -142 -143 -144 -145 -146 -146 -147 -148 -148 -147 -147 -146 -145 -144 -142 -141 -139 -136 -134 -132 -129 -126 -123 -120 -117 -115 -112 -109 -107 -104 -102 -98 -94 -90 -85 -81 -77 -73 -70 -66 -62 -59 -55 -51 -47 -42 -37 -31 -24 -18 -12 -7 -1 4 8 13 18
-96 -96 -96 -97 -98 -99 -101 -102 -104 -105 -107 -109 -111 -113 -115 -117 -119 -120 -122 -124 -126 -127 -129 -130 -132 -134 -135 -137 -139 -141 -143 -145 -147 -149 -150 -152 -154 -155 -156 -157 -158 -159 -160 -160 -161 -161 -160 -160 -159 -159 -158 -157 -155 -154 -153 -151 -150 -148 -147 -145 -143 -141 -139 -138 -136 -134 -131 -129 -126 -123 -120 -117 -113 -108 -103 -98 -92 -86 -81 -75 -69 -62 -56 -49 -42 -35 -28 -22 -16 -12
-76 -76 -76 -76 -77 -78 -79 -81 -83 -85 -87 -90 -93 -95 -99 -102 -105 -109 -112 -115 -118 -121 -124 -127 -130 -133 -136 -139 -141 -144 -146 -149 -151 -153 -156 -158 -160 -162 -164 -165 -167 -168 -169 -170 -171 -171 -171 -171 -171 -171 -170 -170 -169 -168 -167 -166 -165 -164 -162 -161 -160 -158 -157 -155 -154 -153 -151 -150 -148 -147 -145 -143 -142 -139 -137 -133 -130 -125 -121 -116 -110 -105 -99 -94 -88 -83 -77 -71 -66 -60
-43 -40 -38 -36 -35 -34 -33 -33 -33 -34 -36 -39 -42 -46 -52 -58 -64 -71 -79 -86 -93 -100 -107 -113 -120 -126 -133 -138 -142 -145 -148 -151 -154 -157 -160 -162 -165 -167 -169 -171 -173 -175 -176 -178 -179 -179 -180 -180 -181 -181 -181 -181 -181 -180 -180 -179 -178 -178 -177 -176 -175 -174 -173 -172 -171 -169 -168 -167 -166 -165 -163 -162 -161 -159 -158 -156 -154 -152 -150 -148 -145 -143 -139 -135 -131 -127 -123 -119 -115 -111
-9 -6 -2 6 18 24 27 28 27 25 20 16 10 5 -1 -9 -19 -31 -44 -56 -68 -80 -92 -102 -113 -122 -131 -138 -143 -146 -150 -153 -156 -159 -163 -165 -168 -171 -174 -176 -178 -180 -182 -184 -185 -186 -187 -188 -189 -189 -189 -190 -190 -190 -190 -190 -190 -189 -189 -188 -188 -187 -186 -186 -185 -184 -183 -182 -181 -180 -179 -178 -176 -175 -173 -172 -170 -169 -167 -165 -164 -162 -160 -158 -156 -154 -151 -149 -147 -144
12 25 42 66 87 104 119 128 120 101 82 65 50 37 15 2 -4 -15 -30 -44 -57 -71 -84 -96 -109 -121 -131 -137 -142 -145 -149 -152 -156 -160 -163 -166 -169 -172 -175 -178 -180 -183 -185 -187 -188 -190 -191 -192 -193 -194 -195 -196 -196 -197 -197 -197 -197 -197 -197 -197 -197 -197 -196 -196 -195 -195 -194 -193 -192 -191 -190 -189 -188 -186 -185 -183 -182 -180 -179 -177 -175 -173 -171 -169 -167 -166 -164 -162 -159 -157
37 64 98 137 162 165 159 148 132 113 90 60 36 17 2 -4 -12 -23 -35 -47 -60 -73 -84 -96 -108 -119 -128 -133 -137 -141 -145 -149 -153 -156 -160 -163 -167 -170 -173 -176 -179 -181 -183 -185 -187 -189 -191 -192 -194 -195 -196 -197 -198 -199 -200 -200 -201 -201 -202 -202 -202 -202 -202 -201 -201 -201 -200 -199 -198 -197 -196 -195 -194 -192 -191 -189 -188 -186 -184 -182 -181 -179 -177 -175 -173 -171 -169 -167 -165 -163
23 46 82 116 125 114 94 76 60 47 34 24 17 7 -2 -10 -22 -33 -45 -56 -67 -78 -89 -101 -112 -120 -127 -131 -135 -139 -142 -147 -151 -154 -158 -161 -165 -168 -171 -174 -177 -179 -181 -183 -185 -187 -189 -191 -193 -194 -196 -197 -198 -199 -200 -201 -202 -203 -203 -204 -204 -204 -204 -204 -204 -203 -203 -202 -201 -200 -199 -197 -196 -194 -192 -191 -189 -187 -185 -183 -181 -179 -177 -176 -174 -172 -170 -168 -166 -164
1 15 34 39 31 17 7 0 -5 -10 -15 -20 -24 -29 -36 -43 -51 -60 -69 -78 -87 -96 -105 -113 -121 -128 -133 -137 -140 -143 -147 -150 -154 -157 -161 -164 -167 -170 -173 -176 -178 -180 -182 -184 -187 -188 -190 -192 -194 -195 -197 -198 -200 -201 -202 -203 -203 -204 -205 -205 -205 -206 -206 -205 -205 -205 -204 -203 -202 -200 -199 -197 -195 -194 -192 -190 -188 -186 -183 -181 -179 -177 -175 -173 -171 -169 -168 -166 -164 -162
-21 -15 -12 -12 -17 -24 -32 -40 -47 -54 -60 -67 -73 -79 -86 -92 -99 -104 -110 -116 -121 -127 -133 -139 -143 -148 -151 -153 -156 -159 -162 -165 -168 -170 -173 -176 -178 -181 -183 -185 -187 -189 -190 -192 -194 -195 -197 -198 -200 -201 -202 -203 -204 -205 -206 -207 -208 -208 -208 -208 -209 -208 -208 -208 -207 -206 -205 -204 -202 -201 -199 -197 -195 -192 -190 -188 -186 -183 -181 -179 -176 -174 -172 -170 -168 -166 -164 -163 -161 -159
-92 -91 -91 -92 -94 -97 -102 -106 -112 -118 -123 -128 -134 -140 -145 -150 -154 -159 -162 -165 -167 -169 -171 -174 -176 -178 -180 -182 -183 -185 -187 -189 -191 -193 -195 -196 -198 -199 -201 -202 -203 -204 -205 -206 -207 -208 -209 -210 -211 -211 -212 -213 -213 -213 -214 -214 -214 -214 -214 -213 -213 -212 -212 -211 -210 -208 -207 -205 -203 -201 -198 -196 -193 -191 -188 -185 -183 -180 -178 -175 -172 -170 -168 -165 -163 -161 -160 -158 -156 -155
-159 -160 -162 -164 -166 -169 -172 -175 -178 -181 -184 -187 -191 -195 -198 -200 -202 -204 -205 -206 -207 -208 -209 -210 -211 -212 -213 -214 -215 -216 -217 -218 -218 -219 -220 -220 -221 -221 -222 -222 -222 -223 -223 -223 -223 -224 -224 -224 -224 -224 -223 -223 -223 -223 -222 -222 -221 -220 -219 -219 -217 -216 -215 -213 -211 -209 -207 -205 -202 -200 -197 -193 -190 -187 -184 -181 -178 -175 -172 -169 -166 -164 -161 -159 -157 -155 -153 -151 -149 -148
-197 -200 -202 -205 -208 -211 -214 -217 -220 -223 -226 -228 -231 -233 -235 -237 -238 -239 -240 -240 -241 -242 -242 -243 -243 -244 -244 -244 -244 -244 -244 -244 -244 -244 -244 -243 -243 -243 -242 -242 -242 -241 -241 -240 -239 -239 -238 -237 -237 -236 -235 -234 -233 -232 -231 -229 -228 -226 -225 -223 -221 -220 -218 -215 -213 -210 -207 -204 -201 -197 -194 -190 -187 -183 -180 -176 -172 -169 -166 -163 -160 -157 -154 -151 -149 -147 -145 -143 -141 -140
-221 -223 -227 -230 -233 -237 -240 -243 -246 -249 -252 -255 -257 -259 -261 -262 -263 -264 -265 -266 -266 -267 -267 -267 -267 -267 -266 -266 -266 -265 -265 -264 -263 -263 -262 -261 -260 -259 -259 -258 -257 -256 -255 -254 -253 -251 -250 -249 -248 -246 -245 -243 -241 -240 -238 -236 -234 -232 -230 -228 -225 -223 -220 -217 -214 -210 -207 -203 -200 -195 -191 -187 -183 -179 -175 -171 -167 -163 -159 -156 -153 -150 -147 -144 -142 -140 -137 -135 -133 -131
-241 -244 -248 -251 -254 -258 -261 -264 -267 -270 -272 -275 -277 -279 -281 -282 -283 -284 -284 -285 -285 -285 -285 -285 -285 -284 -284 -283 -282 -281 -281 -280 -278 -277 -276 -275 -274 -273 -271 -270 -269 -268 -266 -265 -263 -262 -260 -258 -257 -255 -253 -251 -249 -247 -245 -242 -240 -237 -234 -232 -229 -226 -223 -219 -215 -211 -207 -203 -198 -194 -189 -185 -180 -175 -171 -167 -162 -158 -154 -151 -147 -144 -140 -138 -136 -133 -131 -129 -127 -125
-257 -261 -264 -267 -271 -274 -277 -280 -283 -286 -289 -291 -293 -295 -296 -297 -298 -299 -299 -299 -300 -300 -299 -299 -299 -298 -297 -296 -295 -294 -293 -292 -291 -290 -288 -287 -285 -284 -283 -281 -280 -278 -276 -275 -273 -271 -269 -267 -265 -263 -261 -259 -256 -254 -251 -248 -245 -243 -240 -236 -233 -229 -226 -222 -217 -213 -208 -203 -198 -192 -187 -182 -177 -172 -167 -163 -158 -153 -149 -145 -141 -138 -135 -132 -129 -127 -125 -123 -121 -119
-268 -271 -274 -278 -281 -285 -288 -291 -294 -296 -299 -301 -303 -305 -306 -307 -308 -309 -309 -309 -309 -309 -309 -309 -308 -307 -307 -306 -305 -304 -302 -301 -300 -299 -297 -296 -294 -293 -291 -289 -288 -286 -284 -283 -281 -279 -277 -274 -272 -270 -268 -265 -262 -260 -257 -254 -251 -247 -244 -241 -237 -233 -229 -224 -219 -214 -208 -203 -197 -192 -186 -180 -174 -169 -164 -158 -153 -149 -144 -140 -136 -132 -129 -126 -124 -121 -119 -117 -115 -113
-271 -274 -278 -281 -285 -288 -291 -294 -297 -300 -302 -305 -307 -308 -310 -311 -312 -313 -313 -314 -314 -314 -314 -313 -313 -312 -312 -311 -310 -309 -308 -307 -305 -304 -302 -301 -300 -298 -297 -295 -293 -292 -290 -288 -286 -284 -282 -280 -277 -275 -272 -270 -267 -264 -261 -258 -255 -251 -248 -244 -240 -235 -231 -226 -220 -215 -209 -203 -197 -191 -185 -179 -173 -167 -162 -156 -150 -145 -141 -136 -133 -129 -126 -123 -120 -118 -116 -114 -112 -110
-266 -269 -273 -277 -281 -284 -288 -291 -294 -296 -299 -302 -304 -306 -307 -308 -310 -311 -311 -312 -312 -312 -313 -312 -312 -312 -311 -311 -310 -309 -308 -307 -306 -305 -304 -303 -301 -300 -298 -297 -295 -294 -292 -290 -288 -286 -284 -282 -279 -277 -274 -272 -269 -266 -263 -260 -256 -253 -249 -246 -241 -237 -232 -226 -221 -215 -210 -204 -198 -192 -185 -179 -173 -167 -162 -156 -151 -146 -141 -137 -133 -129 -126 -124 -121 -119 -117 -115 -113 -111
-255 -259 -263 -267 -270 -274 -278 -281 -284 -287 -290 -293 -295 -297 -299 -300 -302 -303 -304 -305 -306 -306 -307 -307 -307 -307 -307 -306 -306 -306 -305 -304 -303 -302 -302 -301 -299 -298 -297 -296 -294 -293 -291 -289 -287 -285 -283 -281 -279 -276 -274 -271 -269 -266 -263 -260 -257 -253 -249 -246 -242 -237 -232 -227 -222 -217 -211 -205 -199 -193 -187 -181 -176 -170 -164 -159 -154 -149 -145 -141 -138 -135 -132 -129 -126 -124 -122 -120 -118 -117
-240 -244 -249 -252 -256 -260 -264 -267 -271 -274 -277 -280 -282 -284 -286 -288 -290 -292 -293 -294 -295 -296 -297 -298 -298 -298 -299 -299 -299 -299 -299 -298 -298 -297 -297 -296 -295 -294 -293 -292 -291 -289 -288 -286 -285 -283 -281 -279 -277 -275 -272 -270 -267 -264 -262 -259 -256 -253 -249 -246 -242 -237 -233 -228 -223 -218 -213 -208 -202 -196 -191 -185 -180 -175 -170 -165 -161 -157 -152 -149 -146 -143 -140 -138 -136 -133 -131 -130 -128 -127
-223 -228 -232 -236 -240 -244 -248 -251 -255 -258 -261 -264 -267 -269 -271 -274 -276 -277 -279 -281 -282 -284 -285 -286 -287 -288 -289 -289 -290 -290 -290 -290 -290 -290 -290 -290 -289 -289 -288 -287 -286 -285 -284 -282 -281 -279 -278 -276 -274 -272 -270 -267 -265 -263 -260 -258 -255 -252 -249 -246 -242 -238 -234 -230 -226 -221 -216 -212 -207 -202 -197 -193 -188 -183 -178 -174 -170 -167 -163 -160 -158 -155 -153 -150 -148 -146 -144 -143 -141 -140
-204 -208 -212 -216 -220 -224 -228 -232 -236 -239 -242 -245 -248 -251 -253 -256 -259 -261 -263 -265 -267 -269 -271 -272 -274 -275 -276 -278 -278 -279 -280 -281 -281 -282 -282 -282 -282 -281 -281 -281 -280 -279 -278 -277 -276 -275 -274 -272 -271 -269 -267 -265 -263 -261 -259 -257 -255 -253 -250 -247 -244 -241 -237 -234 -230 -226 -222 -218 -214 -210 -206 -202 -198 -194 -191 -187 -184 -181 -178 -175 -173 -171 -169 -167 -165 -163 -162 -160 -159 -158
-178 -183 -188 -193 -197 -201 -205 -209 -213 -216 -219 -223 -226 -229 -233 -235 -238 -241 -244 -246 -249 -252 -254 -256 -258 -260 -262 -264 -265 -267 -268 -269 -270 -271 -272 -273 -273 -273 -274 -274 -273 -273 -273 -272 -271 -271 -270 -269 -268 -267 -265 -264 -263 -261 -260 -258 -257 -255 -253 -251 -249 -246 -244 -241 -238 -235 -232 -229 -226 -223 -220 -216 -213 -210 -207 -205 -202 -200 -197 -196 -194 -192 -190 -189 -187 -186 -184 -183 -182 -181
-140 -148 -155 -162 -169 -174 -179 -184 -188 -191 -195 -199 -202 -205 -209 -212 -216 -219 -222 -226 -229 -232 -235 -238 -241 -243 -246 -248 -250 -253 -254 -256 -258 -260 -261 -262 -263 -264 -265 -265 -266 -266 -266 -266 -266 -266 -266 -265 -265 -265 -264 -263 -263 -262 -262 -261 -260 -259 -258 -257 -256 -254 -253 -251 -250 -248 -246 -244 -242 -240 -238 -236 -234 -232 -231 -229 -227 -226 -224 -223 -222 -220 -219 -218 -217 -216 -215 -214 -213 -213
-94 -103 -113 -121 -130 -138 -145 -152 -158 -164 -169 -173 -177 -181 -185 -189 -192 -196 -200 -204 -208 -211 -215 -218 -221 -225 -228 -231 -234 -237 -239 -242 -244 -246 -248 -250 -252 -253 -254 -256 -257 -258 -258 -259 -260 -260 -261 -261 -261 -262 -262 -262 -263 -263 -263 -263 -263 -264 -264 -264 -264 -263 -263 -263 -262 -262 -261 -261 -260 -259 -259 -258 -257 -257 -256 -255 -255 -254 -253 -253 -253 -252 -252 -251 -251 -250 -250 -249 -249 -248
-52 -60 -68 -75 -83 -92 -100 -108 -115 -123 -131 -138 -144 -150 -156 -162 -167 -172 -176 -180 -185 -189 -193 -198 -201 -205 -209 -212 -216 -219 -222 -225 -228 -231 -234 -236 -238 -240 -242 -244 -246 -247 -249 -250 -252 -253 -254 -255 -256 -258 -259 -260 -261 -262 -263 -264 -265 -267 -268 -269 -270 -270 -271 -272 -273 -274 -274 -275 -276 -276 -277 -277 -278 -278 -278 -279 -279 -280 -280 -280 -281 -281 -281 -281 -281 -281 -282 -282 -282 -282
-14 -18 -23 -28 -36 -43 -50 -57 -64 -71 -78 -85 -92 -100 -108 -115 -122 -130 -137 -144 -151 -158 -164 -170 -175 -181 -186 -191 -195 -199 -203 -207 -210 -213 -216 -220 -223 -225 -228 -230 -233 -235 -238 -240 -242 -244 -246 -248 -250 -252 -254 -256 -258 -260 -262 -264 -266 -268 -270 -271 -273 -275 -277 -279 -280 -282 -284 -285 -287 -288 -290 -291 -292 -294 -295 -296 -297 -298 -299 -300 -301 -302 -303 -304 -304 -305 -306 -307 -307 -308
14 10 7 -6 -18 -19 -17 -15 -17 -20 -24 -29 -35 -41 -48 -55 -63 -71 -79 -88 -97 -106 -116 -125 -134 -143 -151 -159 -166 -173 -179 -184 -189 -193 -197 -201 -205 -208 -212 -216 -219 -222 -226 -229 -232 -235 -238 -241 -244 -247 -250 -253 -255 -258 -261 -263 -266 -269 -272 -274 -277 -279 -282 -284 -286 -289 -291 -293 -296 -298 -300 -302 -304 -306 -308 -309 -311 -313 -314 -316 -317 -318 -320 -321 -322 -323 -324 -326 -327 -328
36 30 23 10 3 2 5 9 10 10 10 10 10 9 6 0 -7 -12 -19 -28 -38 -50 -62 -74 -87 -100 -110 -120 -130 -139 -147 -155 -163 -169 -175 -180 -185 -190 -195 -199 -203 -208 -212 -216 -220 -224 -228 -232 -236 -239 -243 -247 -251 -254 -257 -261 -264 -267 -271 -274 -277 -281 -284 -286 -289 -292 -295 -298 -301 -304 -306 -309 -311 -314 -316 -318 -320 -323 -325 -327 -329 -330 -332 -334 -336 -337 -339 -340 -342 -343
52 47 40 32 29 30 34 36 35 32 32 35 40 45 51 53 48 38 29 16 2 -12 -28 -45 -61 -75 -87 -96 -104 -111 -117 -123 -130 -136 -143 -150 -157 -164 -172 -178 -184 -190 -195 -200 -205 -210 -214 -219 -223 -228 -232 -236 -241 -245 -249 -253 -257 -261 -264 -268 -272 -275 -279 -283 -286 -290 -293 -296 -300 -303 -306 -309 -312 -315 -318 -320 -323 -325 -328 -330 -333 -335 -338 -340 -342 -344 -346 -348 -350 -351
72 71 68 67 76 96 116 123 120 115 112 110 108 105 102 99 95 89 76 53 29 11 -4 -22 -45 -64 -70 -72 -73 -74 -77 -81 -87 -93 -100 -107 -115 -123 -131 -138 -147 -155 -164 -172 -179 -186 -192 -198 -203 -209 -214 -218 -223 -227 -232 -236 -240 -244 -249 -253 -257 -261 -265 -269 -273 -277 -281 -285 -288 -292 -295 -299 -302 -305 -309 -312 -315 -318 -321 -324 -327 -329 -332 -335 -337 -340 -342 -345 -347 -349
153 142 121 106 108 120 133 142 149 153 154 154 153 153 152 150 146 140 130 117 103 88 73 58 44 30 16 5 -4 -11 -16 -23 -29 -37 -44 -52 -60 -68 -76 -84 -93 -101 -110 -119 -129 -138 -147 -155 -163 -171 -178 -185 -192 -198 -203 -208 -213 -217 -222 -226 -230 -235 -239 -243 -248 -252 -256 -260 -264 -268 -272 -275 -279 -283 -286 -290 -293 -296 -300 -303 -307 -310 -313 -316 -319 -322 -324 -327 -330 -332
235 206 165 143 149 162 166 164 159 155 151 148 149 151 153 155 156 156 157 156 150 138 125 116 109 100 87 71 56 43 30 21 14 8 2 -3 -8 -13 -19 -26 -34 -43 -51 -60 -69 -78 -86 -94 -103 -112 -121 -129 -137 -145 -152 -159 -166 -173 -180 -186 -191 -196 -202 -207 -211 -216 -221 -225 -229 -233 -237 -241 -245 -248 -252 -256 -260 -263 -267 -270 -274 -277 -280 -284 -287 -290 -293 -297 -299 -302
290 276 264 266 277 281 270 246 218 191 167 152 148 149 150 151 151 153 155 157 159 160 159 153 145 138 132 126 119 111 100 85 67 50 38 31 25 21 17 13 9 4 -2 -10 -17 -24 -30 -36 -42 -48 -53 -59 -66 -73 -80 -88 -96 -104 -112 -120 -128 -136 -143 -150 -158 -166 -173 -180 -187 -192 -198 -202 -206 -210 -213 -217 -220 -224 -227 -231 -235 -238 -242 -245 -248 -252 -255 -258 -261 -263
330 320 313 314 316 313 306 292 266 232 199 179 172 170 171 173 170 160 150 147 154 162 166 167 165 161 154 146 132 115 98 82 69 65 73 83 85 80 73 69 67 62 52 40 27 17 7 0 -3 -4 -5 -6 -8 -12 -17 -24 -32 -39 -46 -54 -61 -69 -77 -84 -92 -100 -108 -116 -124 -131 -138 -146 -153 -160 -167 -172 -177 -181 -185 -188 -192 -195 -199 -203 -206 -209 -212 -216 -219 -222
338 324 317 315 310 293 269 250 241 235 228 221 218 225 243 252 234 197 164 147 141 137 131 123 115 107 102 100 101 102 99 95 96 114 142 161 166 161 153 147 140 134 128 117 95 64 35 18 9 6 4 5 6 5 4 5 8 11 9 2 -6 -14 -19 -24 -28 -32 -37 -42 -49 -56 -64 -71 -78 -84 -90 -95 -101 -106 -111 -116 -120 -125 -129 -133 -137 -140 -143 -146 -149 -151
341 319 306 297 290 286 283 284 288 289 280 266 262 275 294 294 263 216 173 146 131 130 141 155 164 169 172 176 180 180 173 166 167 177 193 209 227 239 237 224 207 193 179 159 127 85 51 33 22 15 14 14 13 10 13 28 50 65 71 69 63 53 41 34 35 36 32 24 15 7 -2 -9 -13 -14 -15 -18 -23 -28 -32 -36 -40 -43 -46 -49 -51 -54 -55 -57 -59 -60
368 353 347 346 351 360 366 368 367 359 343 324 312 308 302 283 253 221 192 170 160 169 192 220 246 270 284 287 280 263 236 214 214 232 253 275 293 298 285 260 233 207 179 147 108 73 49 35 26 22 22 21 18 16 24 45 72 97 120 138 146 146 141 132 119 105 92 77 61 41 22 11 10 12 12 10 7 6 4 4 3 3 2 1 0 -1 -2 -3 -3 -3
423 420 421 424 430 434 430 418 400 378 356 337 325 318 308 294 274 246 212 189 193 224 262 289 304 315 324 328 318 292 259 237 233 237 238 232 222 207 186 165 147 132 118 102 84 67 54 44 37 31 27 24 21 23 36 57 79 100 121 139 154 165 170 169 162 152 136 116 90 59 35 32 42 47 41 31 23 19 18 19 24 28 27 22 18 18 20 22 26 30
454 455 455 455 455 454 449 440 424 397 368 345 335 327 319 307 288 255 215 191 206 251 290 313 327 332 328 317 301 278 255 244 243 233 207 172 145 131 127 129 135 142 145 146 138 118 86 56 40 35 38 45 57 72 89 107 120 126 131 137 144 150 154 154 149 134 114 95 81 70 64 66 71 73 69 62 51 39 33 35 42 47 45 41 39 43 49 59 72 83
455 457 455 451 446 444 447 446 429 399 371 355 348 341 333 321 296 258 225 218 242 277 306 327 341 338 324 310 303 298 292 286 276 250 208 168 150 150 156 160 163 164 164 159 142 109 72 49 45 53 66 86 109 131 150 165 174 177 176 170 161 154 151 148 140 128 116 110 108 107 104 100 95 91 84 74 58 43 37 44 55 60 60 60 61 65 73 90 111 125
415 436 449 452 451 444 433 420 407 393 381 372 365 356 343 325 297 262 239 250 286 316 331 338 340 338 332 325 317 309 304 301 288 257 213 177 160 155 155 155 154 149 139 125 101 70 46 51 77 100 115 128 146 171 198 224 243 251 243 221 198 182 173 167 164 163 162 160 158 154 149 143 139 137 133 124 111 99 92 88 86 83 80 80 83 89 100 118 135 144
391 417 437 451 456 452 442 429 414 398 385 375 364 348 330 314 302 294 293 304 318 328 331 332 334 334 333 327 317 307 298 287 266 234 203 180 164 155 150 149 146 136 120 100 76 54 51 73 105 128 140 152 173 201 231 261 287 297 285 255 230 216 208 205 205 206 208 209 209 210 210 207 200 190 181 175 168 159 147 134 120 106 97 98 106 116 124 130 137 142
383 406 431 450 455 450 439 422 401 382 370 361 349 336 323 315 310 308 312 318 322 323 321 320 321 322 321 318 312 301 286 268 247 225 206 189 175 162 152 142 130 115 98 82 66 56 64 86 109 128 143 155 163 172 193 230 263 274 263 246 233 226 223 227 236 243 246 247 248 250 251 250 245 237 228 216 201 181 160 140 123 110 109 121 138 152 162 170 176 179
390 399 414 423 423 417 408 394 379 367 356 346 335 324 316 310 307 307 311 316 317 314 311 310 312 314 317 319 319 317 310 296 275 252 230 210 193 178 164 148 127 103 84 71 63 61 65 75 92 115 137 146 148 152 166 187 207 223 235 242 244 245 249 259 268 272 271 270 275 282 287 287 282 272 257 238 215 189 165 146 131 124 129 144 161 173 183 191 199 207
395 390 387 384 380 375 366 354 343 335 327 321 315 311 310 312 315 316 317 315 311 305 303 305 311 317 323 326 323 314 301 282 259 237 218 201 189 180 170 153 124 95 74 62 60 69 86 107 131 157 175 182 181 184 192 202 210 219 230 243 258 272 284 295 302 308 312 317 323 328 329 324 317 307 296 280 258 231 205 182 161 148 145 151 165 188 210 224 232 237
397 376 360 351 345 338 332 325 319 314 310 308 308 310 314 319 322 322 319 315 307 301 302 307 311 311 308 303 299 290 271 240 207 183 172 165 154 139 123 104 85 73 69 73 83 100 120 143 165 185 199 207 215 225 237 246 252 255 260 268 279 294 312 329 338 341 343 350 358 362 360 354 349 347 343 327 298 266 240 217 196 176 158 149 160 184 210 233 254 270