ncols        100
nrows        100
xllcorner    -16.945833333350166
yllcorner    27.845833333316833
cellsize     0.004166666667
NODATA_value -32767
-1001 -982 -962 -939 -922 -914 -886 -791 -747 -701 -657 -541 -324 -237 -200 -188 -170 -141 -109 -82 -61 -42 -21 10 52 138 369 520 433 446 587 728 784 833 905 967 1015 1069 1114 1152 1206 1262 1306 1339 1382 1443 1498 1554 1603 1655 1707 1774 1843 1892 1940 1993 2054 2109 2161 2199 2256 2351 2474 2621 2791 2948 3017 3032 3004 2992 3024 3052 3047 2974 2906 2792 2649 2502 2410 2383 2399 2380 2360 2330 2300 2251 2205 2194 2215 2174 2155 2127 2075 2047 2125 2281 2258 2218 2174 2148
-1002 -988 -968 -951 -940 -936 -888 -777 -719 -755 -732 -654 -516 -291 -223 -203 -194 -164 -128 -94 -68 -44 -21 -49 6 97 398 466 373 412 539 674 751 797 852 914 971 1027 1065 1107 1159 1232 1265 1308 1363 1410 1466 1527 1587 1628 1680 1746 1812 1860 1905 1961 2024 2096 2166 2203 2282 2352 2441 2573 2708 2816 2898 2910 2885 2860 2845 2841 2819 2739 2642 2549 2438 2343 2314 2287 2300 2316 2304 2271 2250 2230 2200 2166 2146 2129 2116 2103 2064 2053 2177 2258 2222 2174 2134 2095
-1007 -988 -974 -960 -953 -958 -953 -847 -787 -811 -787 -727 -647 -428 -286 -228 -206 -184 -152 -115 -83 -58 -33 -12 11 85 307 329 307 355 512 632 687 734 785 845 904 954 998 1048 1110 1173 1217 1269 1322 1382 1435 1489 1549 1596 1649 1708 1760 1811 1870 1932 1994 2053 2119 2179 2247 2312 2376 2481 2547 2602 2678 2720 2736 2727 2714 2713 2678 2589 2478 2373 2307 2290 2281 2257 2242 2268 2280 2264 2224 2188 2180 2149 2128 2132 2107 2073 2059 2087 2214 2222 2177 2131 2083 2032
-1011 -988 -980 -970 -968 -973 -939 -891 -873 -850 -815 -744 -651 -552 -377 -277 -209 -199 -178 -142 -107 -75 -47 -28 16 82 224 251 265 327 495 565 618 668 711 772 834 892 950 1001 1053 1112 1171 1220 1277 1334 1386 1459 1511 1568 1616 1670 1719 1769 1847 1924 1982 2031 2085 2147 2205 2244 2285 2334 2383 2447 2534 2566 2591 2615 2608 2602 2564 2474 2391 2312 2265 2262 2256 2234 2224 2238 2248 2239 2198 2150 2127 2114 2121 2110 2088 2090 2182 2256 2243 2183 2130 2076 2018 1957
-1013 -994 -985 -983 -984 -989 -947 -910 -897 -877 -832 -750 -680 -626 -501 -358 -252 -217 -199 -168 -123 -84 -56 3 36 89 163 202 233 337 438 493 557 606 652 711 763 835 900 944 998 1065 1126 1177 1226 1266 1326 1388 1445 1519 1581 1628 1668 1720 1795 1897 1983 2028 2074 2107 2154 2189 2217 2232 2269 2317 2377 2416 2456 2499 2493 2470 2427 2353 2284 2236 2224 2239 2243 2242 2231 2211 2192 2177 2169 2147 2106 2099 2109 2109 2140 2255 2300 2254 2201 2162 2095 2010 1958 1885
-1012 -1007 -996 -996 -998 -992 -941 -932 -922 -907 -866 -797 -700 -635 -576 -418 -372 -275 -225 -200 -149 -97 -61 5 48 65 122 162 224 305 372 434 499 559 616 666 709 779 834 894 968 1032 1080 1135 1175 1215 1268 1315 1368 1446 1526 1573 1632 1690 1757 1842 1919 1993 2061 2088 2112 2135 2155 2168 2192 2227 2265 2301 2331 2382 2398 2380 2342 2283 2232 2204 2205 2225 2226 2223 2214 2197 2165 2160 2166 2156 2105 2124 2216 2264 2290 2277 2249 2190 2133 2098 2042 1947 1851 1791
-1016 -1017 -1013 -1009 -1009 -1003 -985 -960 -950 -936 -868 -776 -668 -625 -603 -504 -423 -361 -321 -277 -205 -125 -66 -38 34 79 91 150 211 265 322 387 460 522 571 619 675 729 784 849 906 978 1034 1086 1125 1183 1235 1277 1328 1382 1454 1523 1593 1662 1752 1842 1929 2003 2071 2084 2091 2104 2114 2125 2130 2152 2178 2199 2236 2289 2323 2306 2256 2217 2193 2184 2181 2199 2203 2209 2210 2206 2195 2183 2177 2168 2151 2276 2381 2302 2214 2146 2142 2128 2061 2000 1962 1892 1769 1703
-1023 -1027 -1030 -1024 -1017 -1011 -996 -978 -976 -959 -868 -792 -697 -642 -635 -627 -588 -539 -476 -393 -283 -164 -74 -31 17 61 69 124 189 247 293 340 411 477 508 563 630 688 743 806 866 919 971 1025 1080 1131 1179 1227 1293 1342 1393 1452 1547 1671 1771 1861 1933 2010 2095 2085 2084 2089 2086 2094 2094 2103 2123 2137 2166 2210 2238 2227 2181 2154 2166 2164 2161 2171 2206 2220 2216 2209 2197 2188 2181 2199 2294 2406 2368 2253 2126 2049 2043 2029 1986 1909 1849 1802 1727 1650
-1028 -1037 -1042 -1044 -1028 -1022 -1012 -1001 -994 -989 -893 -803 -748 -707 -702 -690 -670 -640 -594 -504 -368 -213 -88 -28 -18 41 55 108 156 208 257 306 366 415 457 518 589 636 694 750 808 857 907 956 1006 1052 1084 1150 1215 1298 1392 1505 1574 1654 1731 1812 1905 1979 2090 2136 2080 2082 2070 2074 2071 2072 2090 2098 2115 2136 2142 2138 2111 2082 2100 2137 2149 2171 2203 2216 2210 2204 2189 2177 2199 2327 2459 2372 2290 2173 2050 1990 1955 1923 1908 1825 1757 1747 1662 1598
-1035 -1048 -1056 -1060 -1055 -1034 -1033 -1029 -1021 -1017 -946 -848 -807 -799 -783 -756 -697 -658 -625 -575 -448 -275 -123 -40 -20 27 35 75 103 138 209 283 334 374 419 473 526 570 630 690 744 790 836 890 941 989 1020 1064 1141 1231 1335 1444 1532 1623 1732 1836 1940 2030 2104 2113 2070 2069 2062 2053 2052 2056 2059 2059 2071 2077 2062 2050 2045 2032 2028 2093 2134 2145 2181 2262 2277 2244 2209 2233 2332 2401 2367 2288 2202 2122 2022 1947 1900 1836 1818 1743 1661 1626 1601 1499
-1044 -1059 -1071 -1079 -1085 -1068 -1056 -1060 -1056 -1043 -1007 -935 -896 -862 -827 -780 -731 -675 -630 -608 -516 -349 -181 -75 -35 17 51 41 68 112 199 251 294 330 377 425 463 518 576 635 682 725 770 813 872 929 999 1066 1125 1205 1287 1384 1472 1546 1617 1729 1865 1980 1981 2003 2102 2102 2062 2047 2038 2035 2033 2039 2046 2048 2032 2013 2014 2013 2013 2043 2104 2163 2238 2405 2538 2445 2361 2333 2394 2401 2277 2171 2114 2096 2041 1958 1846 1765 1751 1671 1580 1535 1481 1425
-1053 -1072 -1089 -1101 -1106 -1103 -1088 -1082 -1070 -1047 -1018 -983 -930 -881 -840 -795 -752 -704 -650 -622 -571 -426 -264 -133 -56 13 41 30 50 92 175 218 261 289 329 383 423 469 524 578 619 661 708 770 844 906 974 1058 1157 1262 1338 1396 1486 1605 1687 1794 1845 1870 1914 2004 2076 2123 2096 2050 2054 2048 2082 2058 2038 2033 2026 2013 2006 2009 2010 2025 2093 2231 2362 2534 2638 2560 2440 2281 2227 2320 2227 2109 2028 2059 2007 1931 1820 1686 1673 1613 1483 1411 1369 1356
-1063 -1088 -1109 -1120 -1126 -1128 -1118 -1091 -1076 -1059 -1041 -990 -936 -909 -870 -818 -781 -737 -671 -629 -607 -497 -348 -201 -86 14 33 23 38 68 143 188 216 251 293 344 391 440 492 555 595 624 657 712 771 841 920 1020 1110 1176 1240 1351 1469 1567 1674 1729 1755 1843 1928 2046 2101 2082 1994 2036 2179 2174 2255 2243 2114 2058 2041 2019 2013 2022 2046 2091 2173 2313 2354 2503 2562 2488 2370 2284 2100 2123 2099 2015 1909 1949 1941 1855 1740 1605 1592 1586 1454 1322 1263 1273
-1072 -1100 -1125 -1140 -1147 -1148 -1145 -1118 -1097 -1095 -1066 -955 -938 -939 -905 -873 -836 -774 -708 -651 -641 -563 -433 -283 -145 14 27 16 32 58 100 136 166 211 259 310 366 417 460 503 540 572 608 669 746 834 912 987 1049 1128 1217 1346 1471 1568 1578 1632 1759 1804 1872 1950 1929 1913 1965 2053 2154 2206 2341 2379 2287 2159 2151 2102 2073 2105 2169 2237 2325 2331 2256 2341 2418 2326 2248 2220 2075 1924 1881 1844 1764 1844 1806 1720 1594 1532 1506 1513 1428 1298 1213 1167
-1080 -1117 -1145 -1164 -1174 -1168 -1158 -1148 -1129 -1123 -1110 -1034 -1005 -977 -946 -915 -871 -813 -757 -708 -683 -634 -526 -386 -240 11 15 24 18 42 77 105 129 189 235 287 339 377 408 441 483 540 595 661 721 782 851 928 1023 1102 1189 1295 1343 1415 1530 1660 1716 1743 1806 1798 1822 1909 1971 2039 2097 2162 2261 2368 2427 2348 2321 2252 2228 2299 2380 2419 2399 2257 2172 2233 2318 2232 2153 2122 2085 1970 1800 1699 1622 1728 1707 1637 1549 1458 1428 1412 1351 1279 1206 1097
-1074 -1123 -1171 -1192 -1198 -1190 -1160 -1154 -1156 -1133 -1108 -1079 -1036 -1006 -977 -944 -903 -848 -794 -764 -757 -721 -630 -497 -343 -198 -93 6 24 34 54 84 126 166 201 259 300 328 356 391 451 529 577 625 681 768 875 955 1006 1067 1150 1232 1347 1456 1541 1608 1653 1675 1709 1726 1793 1867 1961 2045 2129 2176 2223 2258 2326 2314 2354 2372 2371 2354 2350 2351 2344 2261 2156 2123 2189 2156 2088 2024 1983 1943 1894 1808 1665 1595 1599 1538 1481 1400 1346 1324 1253 1167 1124 1050
-960 -1038 -1140 -1210 -1218 -1214 -1190 -1178 -1173 -1157 -1115 -1091 -1038 -1037 -1011 -975 -932 -868 -793 -787 -815 -804 -736 -612 -446 -274 -142 -64 6 26 44 80 115 143 180 213 236 282 328 369 431 490 525 583 675 803 885 923 982 1076 1169 1264 1356 1437 1507 1561 1586 1602 1643 1714 1796 1863 1931 2008 2059 2126 2117 2149 2178 2186 2245 2293 2313 2202 2167 2209 2194 2139 2149 2049 2044 2035 1982 1940 1868 1854 1814 1767 1660 1523 1497 1446 1377 1319 1251 1247 1222 1152 1058 987
-1015 -1086 -1189 -1238 -1231 -1228 -1222 -1209 -1195 -1179 -1148 -1098 -1066 -1074 -1042 -993 -975 -988 -906 -848 -858 -854 -826 -722 -550 -344 -168 -70 -39 5 31 61 88 108 131 150 209 258 284 345 399 445 512 577 675 840 928 939 962 1038 1135 1237 1325 1387 1446 1501 1522 1560 1602 1656 1753 1813 1862 1932 1983 2010 2055 2093 2079 2079 2173 2161 2137 2052 2020 2051 2035 2001 1997 1957 1942 1904 1845 1829 1782 1784 1709 1675 1613 1519 1428 1400 1341 1263 1201 1170 1149 1104 1020 952
-1105 -1144 -1189 -1216 -1232 -1236 -1235 -1232 -1221 -1204 -1185 -1146 -1124 -1106 -1082 -1077 -1083 -1054 -962 -876 -905 -891 -877 -813 -654 -430 -214 -105 -75 -41 4 34 42 61 88 123 169 216 279 334 374 430 491 550 619 711 787 844 927 1025 1109 1192 1271 1322 1403 1439 1476 1530 1556 1601 1682 1793 1871 1871 1895 1951 2065 2093 1997 2030 2068 2050 2019 1925 1919 1994 1969 1922 1919 1868 1865 1837 1771 1731 1673 1651 1628 1585 1558 1479 1377 1325 1318 1253 1182 1129 1069 1023 964 921
-1076 -1110 -1159 -1201 -1235 -1247 -1249 -1249 -1242 -1227 -1211 -1190 -1155 -1146 -1144 -1136 -1123 -1064 -943 -929 -952 -921 -890 -860 -747 -544 -340 -204 -134 -75 -22 13 27 60 106 150 186 223 265 311 354 396 458 525 592 652 716 795 888 981 1058 1128 1194 1227 1314 1385 1429 1466 1527 1593 1668 1745 1771 1789 1845 1882 1960 1991 1934 1990 1980 1953 1869 1821 1861 1953 1906 1851 1845 1814 1806 1780 1733 1670 1621 1577 1562 1532 1479 1425 1352 1228 1253 1218 1142 1092 1037 977 907 858
-1078 -1102 -1144 -1198 -1241 -1255 -1258 -1261 -1261 -1251 -1238 -1229 -1208 -1182 -1172 -1164 -1147 -1086 -1015 -1010 -982 -937 -896 -868 -810 -646 -458 -298 -180 -96 -40 -22 -17 34 87 128 169 205 243 287 328 376 444 518 580 635 699 773 852 927 977 1023 1081 1159 1245 1323 1370 1415 1499 1594 1626 1651 1654 1703 1759 1785 1804 1835 1857 1896 1901 1871 1764 1726 1787 1831 1834 1778 1763 1759 1756 1746 1706 1646 1591 1530 1482 1461 1413 1342 1285 1208 1122 1157 1118 1064 1017 967 912 829
-1088 -1100 -1150 -1213 -1255 -1267 -1269 -1275 -1280 -1277 -1270 -1260 -1249 -1214 -1196 -1185 -1165 -1130 -1089 -1047 -1005 -958 -904 -849 -825 -708 -539 -363 -207 -99 -50 -36 -32 16 59 103 147 200 247 286 332 382 438 500 554 598 669 741 798 837 908 1010 1083 1163 1227 1267 1297 1379 1470 1526 1551 1552 1554 1607 1658 1686 1717 1754 1762 1789 1817 1802 1749 1652 1688 1700 1724 1694 1696 1716 1718 1711 1679 1629 1565 1504 1444 1397 1344 1286 1229 1175 1062 990 1018 1016 970 915 852 795
-1113 -1124 -1168 -1272 -1318 -1311 -1289 -1301 -1308 -1308 -1301 -1289 -1277 -1264 -1234 -1208 -1180 -1105 -1082 -1045 -998 -950 -892 -825 -798 -724 -579 -410 -246 -127 -72 -53 -45 11 46 96 138 187 223 261 310 362 402 454 498 552 617 674 750 846 922 986 1075 1110 1139 1183 1228 1290 1356 1415 1451 1458 1485 1524 1563 1586 1639 1648 1661 1678 1700 1697 1662 1586 1597 1596 1631 1622 1652 1679 1690 1693 1655 1593 1526 1462 1401 1340 1279 1238 1180 1138 1079 959 891 897 886 865 808 749
-1171 -1184 -1217 -1290 -1322 -1342 -1333 -1334 -1337 -1335 -1328 -1320 -1314 -1304 -1282 -1248 -1203 -1137 -1109 -1053 -984 -908 -837 -785 -756 -711 -595 -445 -294 -179 -112 -82 -66 5 62 89 119 162 203 236 274 319 368 417 482 559 623 689 756 824 895 971 1019 1034 1083 1139 1201 1254 1308 1359 1378 1413 1462 1437 1482 1510 1526 1512 1558 1579 1604 1610 1565 1522 1497 1501 1550 1564 1605 1631 1648 1654 1624 1534 1441 1393 1345 1284 1215 1150 1120 1074 1032 958 878 817 798 804 776 704
-1233 -1233 -1272 -1317 -1333 -1347 -1359 -1364 -1365 -1360 -1357 -1355 -1350 -1340 -1325 -1293 -1262 -1185 -1104 -1046 -943 -847 -782 -741 -712 -685 -594 -469 -337 -229 -154 -113 -87 -63 24 79 101 142 184 223 271 315 354 400 462 533 598 686 763 822 881 915 954 1014 1071 1113 1162 1210 1277 1319 1325 1375 1418 1371 1423 1441 1412 1456 1498 1490 1501 1534 1512 1462 1414 1428 1471 1477 1520 1551 1549 1545 1511 1431 1343 1310 1270 1195 1164 1112 1051 1011 968 889 821 797 746 707 694 644
-1259 -1288 -1324 -1356 -1373 -1384 -1394 -1401 -1394 -1389 -1387 -1386 -1383 -1372 -1358 -1349 -1277 -1134 -1073 -1042 -965 -912 -818 -716 -673 -652 -583 -482 -369 -266 -185 -125 -88 -66 9 56 95 144 188 227 264 293 330 390 454 515 578 660 711 766 827 884 936 993 1028 1077 1135 1198 1246 1260 1266 1319 1323 1299 1367 1367 1342 1390 1410 1397 1413 1492 1485 1416 1375 1359 1385 1394 1448 1468 1421 1394 1360 1300 1257 1223 1179 1127 1090 1065 994 932 895 843 798 756 703 671 624 611
-1257 -1308 -1347 -1380 -1405 -1420 -1426 -1427 -1420 -1419 -1419 -1417 -1412 -1403 -1388 -1372 -1319 -1231 -1185 -1143 -1045 -946 -829 -704 -644 -629 -576 -493 -393 -295 -208 -137 -90 -68 -55 21 83 115 155 180 217 254 299 360 420 486 532 583 665 740 800 858 914 962 1004 1063 1142 1200 1198 1205 1206 1248 1220 1253 1281 1290 1350 1358 1361 1339 1356 1422 1433 1365 1341 1324 1324 1346 1433 1427 1362 1306 1259 1219 1191 1163 1103 1053 1014 982 954 925 853 786 743 716 684 635 589 561
-1272 -1324 -1364 -1394 -1425 -1444 -1453 -1455 -1453 -1450 -1449 -1446 -1439 -1432 -1423 -1408 -1382 -1320 -1255 -1157 -1062 -973 -867 -733 -656 -635 -584 -508 -417 -323 -234 -159 -104 -76 -61 -51 63 87 108 138 183 224 273 330 368 414 459 542 620 700 780 849 902 943 967 1024 1094 1147 1136 1129 1153 1164 1157 1214 1224 1258 1327 1308 1312 1319 1313 1353 1354 1324 1306 1290 1275 1296 1353 1366 1338 1317 1247 1155 1116 1085 1038 986 935 898 880 847 799 763 713 660 638 608 552 519
-1307 -1341 -1376 -1409 -1442 -1470 -1478 -1483 -1484 -1480 -1477 -1474 -1469 -1464 -1462 -1454 -1418 -1363 -1266 -1158 -1069 -989 -876 -739 -672 -656 -331 -520 -446 -354 -265 -185 -121 -86 -68 -55 5 55 76 107 151 192 236 283 305 340 398 465 546 634 712 797 837 869 935 961 1007 1066 1060 1024 1069 1084 1094 1160 1201 1258 1311 1294 1276 1272 1274 1303 1302 1271 1257 1247 1226 1224 1265 1305 1291 1253 1164 1077 1037 1010 975 930 866 817 803 785 727 696 680 642 595 556 510 487
-1353 -1376 -1398 -1428 -1459 -1493 -1505 -1510 -1509 -1509 -1503 -1497 -1494 -1500 -1508 -1483 -1439 -1385 -1306 -1211 -1162 -1036 -887 -750 -692 -682 -392 -350 -482 -393 -303 -219 -149 -103 -76 -60 -48 10 50 85 123 150 181 209 240 284 329 389 462 518 573 604 638 738 747 749 840 927 922 925 1018 1052 1060 1115 1140 1204 1226 1240 1252 1249 1246 1259 1269 1244 1216 1191 1168 1138 1147 1142 1156 1164 1089 1030 977 943 906 859 803 758 722 709 659 630 628 606 553 509 494 468
-1371 -1405 -1432 -1456 -1483 -1510 -1530 -1536 -1537 -1534 -1529 -1526 -1527 -1537 -1542 -1506 -1441 -1400 -1347 -1293 -1206 -1064 -899 -762 -716 -698 -437 -394 -343 -430 -351 -265 -188 -131 -91 -67 -52 -40 17 63 88 116 135 156 185 218 265 316 372 404 418 470 510 585 594 608 600 750 891 935 1006 1023 1040 1064 1092 1157 1173 1191 1223 1232 1225 1227 1233 1203 1171 1149 1121 1083 1058 1043 1018 1019 984 956 934 902 856 801 754 712 674 642 623 588 566 564 512 466 454 451
-1378 -1425 -1453 -1478 -1502 -1525 -1549 -1562 -1570 -1573 -1566 -1558 -1560 -1570 -1574 -1540 -1437 -1419 -1366 -1277 -1159 -1027 -865 -747 -721 -720 -714 -430 -386 -330 -388 -318 -235 -166 -113 -77 -55 -43 -32 40 58 79 101 126 152 186 216 248 274 295 326 387 399 453 482 476 570 754 816 844 965 1004 1013 1023 1061 1133 1141 1155 1191 1209 1206 1202 1191 1161 1128 1106 1085 1054 999 971 933 900 880 872 876 867 826 759 699 659 635 595 570 562 534 516 490 448 417 412
-1399 -1426 -1447 -1469 -1490 -1543 -1573 -1592 -1604 -1604 -1600 -1591 -1591 -1598 -1597 -1581 -1490 -1449 -1381 -1264 -1145 -1036 -900 -784 -751 -769 -766 -736 -436 -371 -307 -362 -287 -207 -139 -89 -57 -43 -35 8 38 59 78 103 135 157 180 210 229 241 252 285 326 354 395 478 543 578 654 799 946 987 977 995 1026 1073 1099 1124 1158 1177 1180 1165 1139 1113 1085 1058 1036 1017 973 904 880 866 839 819 823 831 812 753 668 621 595 556 525 521 516 482 468 433 391 379
-1374 -1395 -1422 -1452 -1538 -1586 -1587 -1616 -1636 -1625 -1624 -1625 -1621 -1622 -1611 -1585 -1549 -1490 -1357 -1262 -1204 -1112 -1006 -883 -825 -853 -849 -801 -726 -430 -377 -327 -345 -253 -171 -104 -62 -44 -36 -29 18 35 61 90 119 144 164 184 204 210 225 252 279 274 308 361 413 525 731 877 977 970 953 960 987 1019 1045 1074 1107 1128 1124 1111 1086 1057 1041 1016 997 974 959 893 834 834 816 789 767 782 784 722 652 605 564 524 493 485 486 470 433 383 356 342
-1354 -1371 -1391 -1460 -1553 -1586 -1607 -1631 -1653 -1646 -1647 -1656 -1654 -1645 -1636 -1621 -1608 -1548 -1417 -1325 -1278 -1194 -1102 -1017 -934 -904 -910 -863 -791 -492 -418 -349 -283 -311 -216 -135 -79 -49 -38 -33 -25 17 44 66 106 129 144 167 175 182 204 233 243 225 248 309 406 532 652 695 788 908 898 889 930 977 1005 1028 1033 1040 1033 1035 1022 998 985 970 954 926 898 852 797 789 764 745 731 737 738 700 647 594 540 485 452 450 444 432 414 387 324 297
-1303 -1330 -1386 -1452 -1531 -1617 -1635 -1640 -1661 -1671 -1677 -1683 -1677 -1670 -1664 -1653 -1634 -1604 -1534 -1483 -1425 -1309 -1217 -1148 -1043 -964 -939 -899 -836 -777 -415 -368 -311 -259 -275 -181 -108 -64 -43 -36 -29 3 15 34 65 99 122 134 140 153 169 195 188 208 273 372 433 438 493 564 744 794 790 815 860 925 954 965 951 912 902 906 927 927 918 907 889 862 844 806 766 769 718 689 683 675 663 642 599 550 496 456 417 406 404 379 362 341 302 251
-1348 -1392 -1455 -1571 -1609 -1653 -1645 -1651 -1673 -1688 -1704 -1704 -1695 -1688 -1681 -1666 -1638 -1604 -1568 -1541 -1506 -1411 -1327 -1227 -1129 -1015 -913 -878 -853 -823 -777 -392 -351 -296 -311 -242 -152 -91 -61 -45 -35 -28 8 10 40 81 96 94 89 111 124 153 209 233 253 311 328 392 516 660 748 727 733 760 808 844 862 877 836 773 776 821 859 854 842 842 820 796 786 757 730 689 650 641 629 609 601 586 552 500 449 423 387 370 382 362 339 320 286 247
-1396 -1451 -1532 -1588 -1616 -1635 -1643 -1666 -1686 -1704 -1717 -1725 -1716 -1707 -1698 -1677 -1646 -1619 -1585 -1567 -1561 -1474 -1381 -1296 -1182 -1050 -929 -869 -880 -894 -852 -772 -386 -331 -268 -299 -220 -145 -97 -65 -46 -38 -31 7 21 33 45 59 64 81 97 121 145 172 205 247 330 461 643 818 727 674 689 718 740 747 769 763 684 632 643 722 775 776 769 770 743 731 730 701 663 615 579 584 579 561 549 540 520 474 436 406 373 344 348 328 312 306 287 253
-1422 -1468 -1528 -1587 -1600 -1626 -1645 -1665 -1691 -1715 -1732 -1741 -1733 -1720 -1709 -1691 -1662 -1633 -1609 -1587 -1575 -1532 -1438 -1309 -1187 -1093 -998 -925 -953 -973 -933 -861 -766 -387 -329 -276 -289 -222 -154 -101 -64 -50 -40 -26 2 11 22 33 46 64 93 104 124 163 234 279 361 497 706 852 716 637 647 653 659 661 659 629 555 528 532 626 683 698 691 685 666 658 657 638 613 590 538 522 517 528 527 513 496 463 425 392 359 325 314 302 273 268 263 231
-1443 -1495 -1552 -1587 -1599 -1616 -1629 -1651 -1686 -1718 -1741 -1758 -1752 -1736 -1720 -1699 -1673 -1653 -1644 -1626 -1607 -1574 -1474 -1344 -1256 -1189 -1133 -1081 -1056 -1023 -980 -936 -860 -773 -395 -354 -308 -230 -227 -153 -96 -73 -57 -34 -15 -7 8 15 36 67 80 84 103 154 191 238 323 446 574 679 657 590 594 599 596 587 568 537 481 466 469 512 563 636 651 637 624 606 597 581 555 522 488 477 484 501 517 503 470 440 406 377 348 312 288 270 262 241 229 216
-1451 -1495 -1533 -1578 -1585 -1585 -1598 -1625 -1672 -1719 -1748 -1772 -1771 -1752 -1733 -1713 -1683 -1669 -1671 -1671 -1639 -1613 -1545 -1474 -1409 -1338 -1264 -1214 -1170 -1083 -1019 -997 -950 -859 -766 -405 -360 -338 -317 -227 -155 -113 -83 -48 -23 -13 -9 4 24 32 46 60 78 107 152 212 287 358 443 534 521 526 548 535 528 525 515 473 430 430 432 455 574 612 624 600 579 562 540 518 502 467 446 435 453 471 537 540 443 401 381 359 327 297 275 255 239 225 204 217
-1450 -1486 -1521 -1557 -1565 -1581 -1612 -1643 -1668 -1717 -1751 -1784 -1785 -1765 -1739 -1711 -1685 -1692 -1708 -1708 -1656 -1621 -1608 -1612 -1560 -1468 -1370 -1317 -1240 -1167 -1096 -1032 -1022 -955 -858 -755 -437 -382 -380 -319 -227 -157 -103 -60 -32 -23 -19 -15 -9 16 27 40 62 103 185 239 273 285 337 435 455 480 495 476 474 489 454 425 394 394 406 460 607 600 573 561 527 508 484 456 438 418 401 405 414 423 484 479 400 371 353 336 296 269 254 236 220 209 185 191
-1439 -1475 -1518 -1546 -1571 -1594 -1627 -1661 -1697 -1736 -1769 -1799 -1797 -1764 -1727 -1697 -1694 -1717 -1740 -1735 -1685 -1681 -1663 -1639 -1602 -1553 -1468 -1397 -1330 -1256 -1189 -1099 -1084 -1026 -957 -876 -781 -412 -319 -377 -308 -209 -128 -73 -42 -31 -27 -24 -17 -9 21 32 62 115 155 129 160 208 258 372 416 425 422 419 419 416 379 365 349 353 372 400 503 524 467 486 465 428 410 392 383 374 371 377 378 373 383 382 355 340 323 292 264 248 230 217 204 191 183 162
-1444 -1473 -1511 -1573 -1600 -1608 -1623 -1665 -1718 -1769 -1800 -1813 -1790 -1742 -1716 -1719 -1736 -1763 -1773 -1766 -1740 -1691 -1670 -1664 -1647 -1620 -1544 -1485 -1428 -1342 -1276 -1202 -1153 -1096 -1054 -999 -919 -824 -390 -294 -200 -278 -174 -98 -51 -32 -28 -28 -24 -16 14 31 60 102 122 111 150 179 260 346 369 370 366 367 343 313 320 320 315 316 332 356 437 518 424 424 402 372 359 348 340 340 339 345 338 331 331 328 326 322 286 261 242 229 211 196 185 169 185 169
-1456 -1482 -1501 -1587 -1623 -1627 -1635 -1677 -1755 -1800 -1825 -1819 -1766 -1732 -1736 -1754 -1778 -1798 -1808 -1803 -1770 -1707 -1712 -1695 -1659 -1640 -1611 -1570 -1496 -1443 -1383 -1320 -1261 -1207 -1146 -1110 -1050 -940 -492 -392 -312 -151 -234 -133 -65 -31 -21 -23 -25 -22 9 35 65 113 118 136 151 169 234 283 309 309 308 321 311 285 282 293 291 300 318 358 404 456 408 349 336 321 309 313 322 315 311 321 310 295 291 290 291 278 240 228 217 209 196 181 161 157 141 125
-1474 -1498 -1599 -1612 -1631 -1647 -1671 -1720 -1769 -1809 -1841 -1824 -1764 -1754 -1774 -1798 -1814 -1824 -1842 -1834 -1792 -1750 -1750 -1716 -1693 -1698 -1680 -1636 -1588 -1545 -1482 -1422 -1379 -1322 -1229 -1170 -1142 -1057 -925 -518 -417 -261 -253 -182 -86 -31 -10 -12 -22 -28 5 26 43 85 106 108 129 160 199 231 250 260 264 302 312 270 260 263 271 289 305 316 328 342 315 306 257 252 274 300 330 295 275 288 286 267 263 252 245 254 212 199 190 186 179 160 138 130 128 115
-1505 -1530 -1623 -1634 -1680 -1685 -1708 -1753 -1782 -1834 -1856 -1829 -1773 -1781 -1807 -1820 -1820 -1855 -1876 -1860 -1804 -1772 -1780 -1747 -1746 -1750 -1727 -1698 -1668 -1607 -1559 -1526 -1478 -1390 -1300 -1202 -1172 -1133 -1025 -887 -494 -340 -314 -236 -120 -40 -9 -8 -18 -28 3 21 29 48 67 98 133 173 200 192 202 203 211 245 274 253 242 239 258 275 277 287 297 299 253 239 223 240 271 314 336 263 237 255 258 239 239 223 214 210 174 165 158 154 149 135 117 102 102 96
-1496 -1530 -1639 -1675 -1722 -1737 -1737 -1768 -1817 -1861 -1868 -1838 -1794 -1802 -1844 -1861 -1869 -1888 -1908 -1881 -1839 -1811 -1814 -1794 -1801 -1794 -1757 -1735 -1709 -1664 -1633 -1588 -1527 -1450 -1374 -1283 -1205 -1163 -1106 -997 -849 -759 -177 -95 -182 -78 -34 -19 -19 -27 5 17 27 42 52 67 92 137 186 161 168 172 171 192 269 262 221 222 240 263 270 279 268 289 291 235 209 236 256 241 227 196 195 218 226 213 202 185 164 149 132 132 133 116 116 113 104 87 77 76
-1505 -1630 -1659 -1708 -1744 -1770 -1775 -1800 -1848 -1880 -1880 -1832 -1808 -1826 -1869 -1889 -1904 -1915 -1928 -1904 -1884 -1846 -1838 -1849 -1852 -1832 -1791 -1763 -1738 -1712 -1675 -1631 -1573 -1517 -1453 -1381 -1286 -1208 -1179 -1102 -965 -809 -296 -157 -114 -172 -100 -52 -28 5 10 13 24 30 33 33 52 78 104 126 147 158 149 195 206 184 187 202 218 233 240 244 235 231 240 223 188 202 202 180 169 169 170 177 186 183 166 151 135 121 113 115 111 93 89 96 91 69 52 50
-1552 -1666 -1695 -1759 -1805 -1837 -1855 -1861 -1896 -1917 -1872 -1808 -1817 -1846 -1877 -1897 -1923 -1940 -1947 -1924 -1907 -1877 -1860 -1887 -1893 -1866 -1822 -1788 -1769 -1745 -1714 -1671 -1629 -1584 -1531 -1445 -1364 -1277 -1221 -1174 -1065 -917 -402 -314 -242 -143 -190 -100 2 10 10 9 15 33 47 26 35 54 108 206 238 209 157 155 137 138 160 178 191 201 202 207 202 193 181 177 169 164 166 157 148 144 148 150 150 144 129 124 118 106 98 97 91 77 71 77 67 42 33 25
-1709 -1723 -1740 -1790 -1826 -1863 -1903 -1927 -1952 -1931 -1858 -1836 -1850 -1866 -1874 -1900 -1940 -1970 -1968 -1931 -1915 -1913 -1913 -1927 -1920 -1880 -1836 -1816 -1800 -1777 -1750 -1721 -1688 -1641 -1563 -1499 -1451 -1358 -1241 -1187 -1130 -1028 -896 -393 -331 -219 -258 -186 -94 -56 1 7 7 22 32 17 24 44 118 270 365 327 188 121 111 125 141 155 162 168 167 177 174 172 163 160 149 148 144 139 132 122 126 122 116 111 103 98 92 85 81 77 71 61 53 48 47 31 16 10
-1761 -1771 -1777 -1825 -1858 -1889 -1922 -1960 -1988 -1903 -1864 -1877 -1893 -1904 -1888 -1915 -1960 -1997 -1981 -1948 -1947 -1956 -1965 -1964 -1931 -1888 -1863 -1851 -1837 -1822 -1798 -1766 -1726 -1665 -1611 -1579 -1531 -1429 -1289 -1197 -1175 -1125 -1034 -913 -845 -364 -197 -301 -201 -117 -33 -10 -20 -15 -21 8 12 34 93 246 333 319 171 104 99 107 145 153 136 135 133 135 140 149 148 137 131 134 128 123 118 101 99 92 90 87 86 75 68 63 61 58 54 48 39 30 33 20 12 5
-1812 -1818 -1811 -1852 -1898 -1925 -1947 -1986 -2003 -1909 -1882 -1899 -1939 -1960 -1949 -1942 -1963 -2020 -2005 -1978 -1989 -2011 -2008 -1978 -1920 -1891 -1888 -1889 -1886 -1859 -1822 -1788 -1747 -1699 -1674 -1647 -1594 -1501 -1385 -1300 -1224 -1194 -1156 -1073 -954 -875 -388 -311 -345 -216 -85 -40 -67 -53 -24 -14 8 34 88 180 237 184 105 84 83 87 92 100 101 109 108 107 112 121 123 118 123 114 110 107 101 85 73 71 68 68 67 59 57 51 46 38 41 40 28 16 13 13 5 2
-1866 -1862 -1852 -1876 -1917 -1953 -1961 -1997 -2033 -1954 -1937 -1950 -1980 -1999 -1990 -1971 -1986 -2040 -2040 -2013 -2027 -2049 -2032 -1982 -1943 -1939 -1932 -1936 -1914 -1864 -1846 -1815 -1796 -1757 -1729 -1695 -1637 -1566 -1501 -1417 -1270 -1249 -1249 -1216 -1127 -992 -595 -527 -336 -325 -152 -74 -40 -79 -21 -9 12 107 138 164 175 141 96 71 70 73 74 71 79 86 89 89 92 95 99 102 104 90 87 89 84 69 58 53 51 50 49 44 33 32 25 26 21 28 20 13 5 2 12 -1
-1932 -1919 -1904 -1916 -1957 -1979 -1970 -1984 -2051 -2009 -2005 -2025 -2043 -2052 -2035 -1994 -2005 -2051 -2076 -2065 -2078 -2071 -2028 -1994 -1982 -1972 -1974 -1962 -1934 -1915 -1889 -1865 -1824 -1797 -1765 -1726 -1681 -1624 -1575 -1503 -1397 -1362 -1328 -1319 -1268 -1156 -1010 -718 -559 -394 -319 -199 -140 -138 -111 -74 3 108 134 150 154 124 75 57 54 57 65 61 68 71 75 77 75 77 80 89 79 63 61 69 71 60 39 33 34 29 32 29 16 14 12 15 8 8 7 11 5 99991 11 -1
-1967 -1971 -1962 -1961 -2001 -2018 -1980 -1952 -2012 -2056 -2054 -2063 -2089 -2112 -2076 -2023 -2020 -2069 -2115 -2114 -2119 -2078 -2046 -2014 -2000 -2011 -2009 -1981 -1966 -1948 -1921 -1887 -1849 -1826 -1792 -1747 -1693 -1636 -1581 -1549 -1508 -1474 -1417 -1371 -1347 -1278 -1160 -1015 -924 -573 -472 -385 -291 -233 -174 -108 -72 21 110 135 136 122 72 51 46 51 55 53 59 62 65 61 60 61 67 79 69 49 47 54 52 46 31 13 18 17 16 17 7 4 5 7 4 1 13 45 26 11 12 -16
-1976 -2012 -2019 -2021 -2039 -2049 -1985 -1933 -1964 -2025 -2094 -2115 -2135 -2149 -2127 -2060 -2039 -2082 -2141 -2158 -2131 -2086 -2069 -2055 -2045 -2047 -2032 -2014 -1992 -1964 -1932 -1901 -1873 -1828 -1788 -1738 -1721 -1624 -1528 -1562 -1578 -1527 -1470 -1419 -1371 -1346 -1272 -1159 -1021 -936 -493 -544 -445 -334 -226 -127 -84 8 52 88 84 64 47 42 39 41 44 45 49 50 52 47 47 50 61 68 49 33 31 33 34 29 16 8 9 12 7 4 -5 -5 -1 4 99992 15 16 66 24 4 11 -32
-1966 -2016 -2059 -2068 -2071 -2088 -2054 -2001 -1976 -1993 -2052 -2103 -2147 -2161 -2165 -2089 -2054 -2112 -2165 -2176 -2145 -2118 -2091 -2096 -2103 -2079 -2054 -2031 -2003 -1973 -1943 -1909 -1864 -1820 -1797 -1808 -1805 -1719 -1657 -1654 -1595 -1558 -1537 -1473 -1407 -1366 -1343 -1269 -1163 -1033 -665 -522 -589 -443 -303 -186 -119 -88 12 35 51 50 53 38 36 34 31 34 38 39 41 37 42 54 71 50 29 16 17 15 13 16 8 -12 -22 -11 -11 -18 -15 -1 -1 -1 10 22 8 -3 12 44 -5 -52
-1993 -2016 -2057 -2093 -2108 -2122 -2104 -2061 -2004 -2014 -2067 -2099 -2136 -2169 -2175 -2127 -2108 -2150 -2193 -2201 -2188 -2165 -2148 -2145 -2126 -2093 -2055 -2015 -1982 -1953 -1921 -1870 -1807 -1805 -1860 -1887 -1853 -1775 -1722 -1692 -1678 -1625 -1562 -1507 -1442 -1385 -1362 -1338 -1275 -1169 -1037 -756 -668 -555 -399 -268 -171 -96 13 30 49 52 48 34 33 29 25 25 25 25 28 27 37 49 47 28 11 6 6 5 5 -1 -6 -5 -9 -10 -21 -44 -43 -10 -13 -9 9 24 -26 -15 19 46 -8 -57
-2029 -2038 -2055 -2098 -2137 -2153 -2147 -2110 -2051 -2050 -2085 -2109 -2131 -2189 -2232 -2241 -2208 -2199 -2222 -2221 -2209 -2196 -2180 -2149 -2108 -2065 -2021 -1995 -1977 -1942 -1912 -1857 -1814 -1882 -1933 -1922 -1866 -1804 -1789 -1752 -1699 -1626 -1576 -1542 -1484 -1429 -1389 -1388 -1358 -1282 -1164 -1062 -774 -674 -496 -348 -224 -114 10 22 66 68 37 35 32 29 25 19 15 13 17 17 24 34 37 17 5 1 -4 -4 -10 -4 -7 -5 -22 -33 -33 -41 -37 -37 -37 -42 -33 -23 -30 -38 -36 -59 -61 -79
-2051 -2056 -2060 -2078 -2144 -2173 -2184 -2163 -2109 -2093 -2116 -2139 -2161 -2217 -2261 -2293 -2280 -2250 -2245 -2233 -2220 -2196 -2161 -2120 -2075 -2037 -2008 -2002 -1996 -1975 -1964 -1954 -1963 -1977 -1988 -1961 -1911 -1867 -1820 -1753 -1665 -1601 -1612 -1596 -1546 -1509 -1470 -1422 -1398 -1368 -1274 -1130 -843 -721 -536 -425 -284 -166 8 15 39 45 36 37 32 25 19 9 2 3 8 14 21 23 28 11 -15 -45 -5 -15 -24 -14 -11 -6 -25 -58 -102 -88 -79 -77 -64 -54 -42 -26 -38 -45 -73 -86 -104 -119
-2070 -2077 -2075 -2086 -2128 -2182 -2210 -2210 -2160 -2119 -2140 -2188 -2207 -2247 -2285 -2304 -2300 -2282 -2254 -2222 -2185 -2157 -2125 -2094 -2063 -2040 -2029 -2043 -2053 -2053 -2056 -2058 -2050 -2059 -2044 -1979 -1913 -1861 -1806 -1737 -1674 -1639 -1672 -1638 -1605 -1584 -1531 -1451 -1432 -1426 -1361 -1228 -1055 -753 -636 -464 -338 -192 5 11 23 29 31 30 24 15 9 5 2 4 4 14 17 12 6 -1 -1 -3 -8 -18 -19 -25 -108 -131 -157 -201 -238 -184 -140 -127 -97 -75 -59 -44 -51 -72 -108 -148 -174 -226
-2089 -2103 -2111 -2121 -2134 -2181 -2222 -2240 -2213 -2161 -2170 -2209 -2255 -2289 -2320 -2329 -2324 -2266 -2215 -2186 -2126 -2101 -2092 -2110 -2121 -2098 -2109 -2130 -2142 -2138 -2131 -2137 -2116 -2091 -2028 -1934 -1860 -1822 -1777 -1733 -1673 -1690 -1731 -1704 -1674 -1626 -1562 -1514 -1480 -1447 -1407 -1293 -1134 -795 -684 -490 -384 -242 -113 4 10 15 18 19 14 8 3 2 -9 -1 6 17 24 19 -1 -4 -1 -6 -101 -133 -131 -153 -256 -330 -368 -394 -410 -372 -314 -284 -217 -163 -140 -94 -107 -135 -229 -291 -301 -379
-2108 -2134 -2151 -2158 -2167 -2195 -2228 -2253 -2263 -2229 -2234 -2252 -2291 -2324 -2347 -2358 -2348 -2270 -2207 -2189 -2154 -2124 -2123 -2144 -2173 -2196 -2216 -2231 -2233 -2205 -2164 -2128 -2102 -2048 -1969 -1890 -1839 -1822 -1798 -1763 -1748 -1778 -1790 -1754 -1706 -1642 -1603 -1565 -1501 -1434 -1403 -1114 -979 -1059 -716 -596 -448 -235 -190 -98 -28 -14 7 7 5 2 -1 -1 -4 -1 -2 -9 12 14 -38 -63 -104 -203 -287 -333 -301 -278 -408 -574 -627 -614 -590 -560 -528 -441 -459 -424 -374 -322 -337 -394 -460 -463 -714 -684
-2102 -2148 -2176 -2194 -2207 -2221 -2233 -2258 -2282 -2289 -2289 -2295 -2333 -2358 -2373 -2383 -2362 -2290 -2244 -2214 -2195 -2206 -2206 -2229 -2277 -2298 -2306 -2303 -2292 -2244 -2174 -2118 -2057 -2006 -1944 -1873 -1877 -1865 -1841 -1861 -1876 -1853 -1818 -1788 -1739 -1713 -1673 -1599 -1491 -1405 -1391 -1134 -1043 -909 -783 -712 -597 -430 -274 -166 -82 -42 -32 -6 -6 -7 -14 -20 -18 -16 -24 -55 -42 -59 -111 -201 -319 -463 -545 -582 -474 -441 -548 -669 -772 -749 -724 -676 -645 -536 -637 -649 -658 -617 -609 -928 -880 -829 -787 -796
-2065 -2110 -2157 -2195 -2221 -2243 -2265 -2274 -2288 -2309 -2331 -2345 -2358 -2374 -2391 -2402 -2384 -2317 -2271 -2228 -2221 -2258 -2268 -2315 -2342 -2338 -2328 -2319 -2298 -2242 -2168 -2108 -2060 -2023 -1969 -1917 -1930 -1920 -1939 -1949 -1921 -1883 -1859 -1816 -1797 -1770 -1695 -1589 -1511 -1452 -1411 -1183 -1066 -963 -885 -805 -711 -577 -320 -255 -167 -112 -113 -59 -56 -47 -78 -82 -69 -56 -43 -52 -69 -145 -249 -390 -526 -630 -698 -739 -705 -693 -737 -785 -909 -919 -881 -825 -751 -699 -808 -844 -857 -1066 -1008 -984 -977 -963 -949 -969
-2088 -2079 -2107 -2140 -2173 -2213 -2244 -2272 -2304 -2324 -2340 -2357 -2375 -2391 -2406 -2422 -2407 -2343 -2273 -2235 -2251 -2308 -2335 -2356 -2362 -2348 -2333 -2296 -2257 -2214 -2175 -2131 -2099 -2047 -1988 -1978 -1998 -2000 -2006 -1974 -1945 -1925 -1886 -1852 -1841 -1781 -1710 -1654 -1594 -1509 -1446 -1422 -1109 -1006 -992 -884 -816 -707 -592 -324 -256 -198 -288 -172 -127 -161 -266 -254 -201 -143 -102 -102 -163 -317 -503 -604 -686 -754 -796 -848 -899 -916 -938 -921 -1008 -1008 -963 -817 -650 -719 -910 -1000 -1147 -1129 -1120 -1117 -1119 -1113 -1117 -1138
-2111 -2064 -2050 -2072 -2111 -2163 -2203 -2247 -2291 -2315 -2340 -2368 -2393 -2412 -2429 -2440 -2431 -2356 -2273 -2248 -2272 -2348 -2390 -2394 -2368 -2338 -2316 -2284 -2244 -2212 -2190 -2153 -2094 -2032 -1997 -2012 -2051 -2068 -2035 -2003 -1979 -1958 -1921 -1897 -1857 -1799 -1749 -1694 -1645 -1569 -1492 -1459 -1146 -1034 -979 -952 -904 -819 -713 -589 -532 -498 -467 -377 -365 -416 -513 -503 -450 -385 -329 -292 -351 -488 -648 -743 -789 -803 -838 -864 -1010 -1048 -1079 -1072 -1073 -1050 -987 -802 -628 -786 -975 -1156 -1224 -1251 -1254 -1254 -1255 -1252 -1266 -1289
-2153 -2076 -2023 -2019 -2067 -2124 -2180 -2224 -2259 -2280 -2314 -2358 -2398 -2436 -2456 -2459 -2455 -2372 -2290 -2274 -2318 -2393 -2423 -2405 -2372 -2340 -2311 -2281 -2256 -2218 -2180 -2143 -2077 -2030 -2042 -2084 -2113 -2094 -2070 -2057 -2022 -1989 -1952 -1907 -1853 -1819 -1776 -1716 -1639 -1525 -1489 -1479 -1223 -1132 -1082 -1034 -997 -945 -837 -686 -631 -629 -579 -540 -577 -617 -746 -756 -683 -618 -592 -555 -572 -650 -730 -795 -848 -839 -839 -928 -1077 -1119 -1134 -1125 -1092 -1093 -1051 -918 -1161 -1124 -1142 -1210 -1302 -1369 -1382 -1379 -1377 -1377 -1396 -1428
-2282 -2172 -2037 -1983 -2009 -2067 -2134 -2172 -2210 -2234 -2296 -2367 -2401 -2445 -2475 -2487 -2482 -2439 -2341 -2327 -2389 -2445 -2445 -2417 -2377 -2332 -2301 -2242 -2211 -2199 -2147 -2090 -2082 -2083 -2105 -2166 -2169 -2141 -2121 -2092 -2043 -2007 -1964 -1913 -1867 -1842 -1784 -1687 -1548 -1528 -1528 -1517 -1281 -1245 -1214 -1170 -1135 -1070 -914 -780 -708 -706 -665 -652 -749 -831 -900 -896 -827 -776 -744 -683 -638 -739 -796 -855 -888 -914 -864 -1014 -1114 -1152 -1170 -1110 -1027 -1131 -1265 -1250 -1237 -1242 -1253 -1291 -1370 -1458 -1490 -1492 -1487 -1506 -1539 -1574
-2358 -2271 -2146 -2053 -2055 -2054 -2029 -2055 -2172 -2204 -2250 -2345 -2418 -2448 -2489 -2504 -2498 -2475 -2410 -2398 -2437 -2464 -2456 -2416 -2370 -2321 -2265 -2223 -2193 -2195 -2154 -2135 -2130 -2171 -2209 -2231 -2213 -2186 -2142 -2088 -2050 -2042 -1982 -1919 -1894 -1868 -1816 -1735 -1714 -1678 -1626 -1590 -1380 -1350 -1306 -1263 -1231 -1158 -1035 -930 -835 -787 -666 -599 -795 -1007 -1039 -1039 -996 -933 -894 -780 -620 -788 -871 -916 -940 -995 -1038 -1073 -1064 -1092 -1187 -1105 -1293 -1318 -1336 -1348 -1404 -1422 -1404 -1403 -1440 -1518 -1585 -1605 -1626 -1656 -1695 -1737
-2429 -2365 -2266 -2170 -2178 -2148 -2118 -2109 -2185 -2230 -2275 -2334 -2422 -2479 -2505 -2517 -2513 -2499 -2472 -2476 -2473 -2472 -2466 -2409 -2347 -2304 -2262 -2244 -2216 -2224 -2209 -2203 -2225 -2263 -2284 -2285 -2249 -2185 -2109 -2089 -2128 -2090 -1990 -1946 -1924 -1872 -1822 -1826 -1834 -1762 -1713 -1671 -1486 -1418 -1357 -1318 -1289 -1188 -1121 -1044 -936 -906 -782 -758 -917 -1096 -1134 -1135 -1098 -1024 -1000 -901 -744 -852 -932 -978 -993 -1070 -1079 -967 -827 -916 -1268 -1333 -1375 -1395 -1409 -1422 -1478 -1541 -1541 -1531 -1488 -1502 -1638 -1697 -1732 -1763 -1800 -1847
-2509 -2440 -2386 -2312 -2272 -2264 -2250 -2240 -2232 -2290 -2350 -2385 -2434 -2467 -2501 -2531 -2536 -2530 -2520 -2516 -2505 -2500 -2477 -2412 -2362 -2326 -2294 -2261 -2260 -2285 -2272 -2266 -2308 -2332 -2336 -2317 -2254 -2163 -2131 -2184 -2197 -2087 -2011 -2000 -1903 -1797 -1839 -1932 -1895 -1822 -1791 -1746 -1559 -1464 -1383 -1359 -1317 -1266 -1228 -1110 -991 -1039 -1045 -1017 -1042 -1198 -1235 -1244 -1193 -1131 -1102 -1031 -911 -887 -1008 -1049 -1070 -1128 -1073 -920 -1246 -1227 -1268 -1359 -1420 -1442 -1462 -1473 -1525 -1610 -1633 -1641 -1623 -1627 -1711 -1761 -1793 -1826 -1859 -1898
-2589 -2543 -2512 -2433 -2385 -2355 -2317 -2279 -2256 -2293 -2336 -2364 -2395 -2450 -2511 -2544 -2551 -2552 -2542 -2526 -2521 -2518 -2470 -2417 -2372 -2333 -2304 -2308 -2318 -2330 -2321 -2327 -2373 -2373 -2357 -2320 -2251 -2182 -2222 -2243 -2203 -2071 -2095 -2068 -1953 -1887 -1974 -2022 -1960 -1908 -1874 -1725 -1588 -1533 -1483 -1443 -1424 -1386 -1274 -1113 -998 -1082 -1122 -1123 -1162 -1228 -1330 -1332 -1274 -1215 -1204 -1103 -1059 -1096 -1105 -1145 -1146 -1223 -1398 -1349 -1323 -1345 -1384 -1417 -1460 -1498 -1553 -1581 -1591 -1652 -1697 -1724 -1746 -1764 -1785 -1815 -1840 -1875 -1906 -1931
-2636 -2587 -2522 -2471 -2432 -2391 -2344 -2296 -2265 -2250 -2260 -2302 -2370 -2447 -2510 -2553 -2566 -2563 -2560 -2555 -2548 -2520 -2442 -2390 -2358 -2348 -2337 -2366 -2350 -2359 -2363 -2390 -2412 -2399 -2373 -2338 -2273 -2270 -2294 -2278 -2220 -2160 -2176 -2152 -2093 -2063 -2069 -2071 -2019 -1968 -1943 -1737 -1656 -1614 -1581 -1527 -1458 -1404 -1268 -1181 -1108 -1169 -1218 -1211 -1235 -1284 -1396 -1403 -1341 -1279 -1288 -1187 -1090 -1165 -1181 -1249 -1227 -1457 -1451 -1448 -1442 -1436 -1447 -1504 -1498 -1485 -1585 -1636 -1667 -1710 -1738 -1771 -1802 -1831 -1850 -1861 -1880 -1912 -1950 -1969
-2665 -2629 -2586 -2513 -2404 -2338 -2294 -2237 -2213 -2219 -2229 -2271 -2370 -2448 -2508 -2556 -2577 -2583 -2583 -2578 -2565 -2501 -2429 -2387 -2401 -2408 -2391 -2412 -2404 -2394 -2404 -2432 -2440 -2418 -2386 -2348 -2308 -2329 -2327 -2283 -2224 -2239 -2236 -2199 -2156 -2122 -2109 -2076 -2013 -2002 -1995 -1705 -1665 -1670 -1619 -1529 -1459 -1393 -1218 -1266 -1286 -1301 -1298 -1292 -1314 -1381 -1458 -1455 -1408 -1336 -1357 -1361 -1270 -1251 -1328 -1403 -1500 -1489 -1486 -1484 -1481 -1462 -1463 -1563 -1564 -1564 -1600 -1634 -1671 -1705 -1745 -1783 -1814 -1850 -1881 -1899 -1906 -1985 -2013 -2040
-2697 -2684 -2648 -2531 -2391 -2306 -2253 -2210 -2190 -2222 -2249 -2300 -2386 -2464 -2516 -2565 -2589 -2603 -2611 -2601 -2571 -2501 -2435 -2422 -2478 -2457 -2455 -2466 -2454 -2429 -2446 -2464 -2474 -2447 -2425 -2382 -2372 -2358 -2340 -2306 -2275 -2304 -2270 -2220 -2184 -2159 -2127 -2057 -2034 -2059 -2044 -1686 -1748 -1726 -1591 -1523 -1461 -1373 -1329 -1348 -1371 -1354 -1367 -1386 -1406 -1445 -1505 -1504 -1472 -1398 -1432 -1446 -1453 -1470 -1489 -1499 -1524 -1527 -1518 -1515 -1500 -1477 -1477 -1576 -1593 -1604 -1581 -1572 -1613 -1688 -1722 -1765 -1808 -1858 -1857 -1902 -1955 -1984 -2009 -2037
-2711 -2710 -2678 -2577 -2474 -2364 -2284 -2239 -2216 -2231 -2265 -2324 -2417 -2476 -2528 -2575 -2608 -2624 -2630 -2617 -2573 -2506 -2460 -2476 -2554 -2525 -2532 -2520 -2485 -2448 -2458 -2499 -2493 -2484 -2444 -2424 -2431 -2371 -2356 -2348 -2339 -2346 -2311 -2272 -2235 -2176 -2135 -2096 -2089 -2099 -2062 -1993 -1805 -1700 -1596 -1554 -1487 -1448 -1476 -1431 -1419 -1412 -1434 -1450 -1471 -1493 -1544 -1541 -1511 -1487 -1470 -1476 -1449 -1485 -1510 -1528 -1536 -1561 -1560 -1540 -1510 -1445 -1468 -1572 -1567 -1548 -1495 -1464 -1610 -1715 -1743 -1823 -1836 -1846 -1851 -1889 -1943 -1971 -1997 -2010
-2719 -2735 -2712 -2634 -2486 -2332 -2246 -2227 -2243 -2265 -2290 -2312 -2378 -2431 -2503 -2568 -2613 -2644 -2644 -2624 -2575 -2531 -2533 -2569 -2621 -2632 -2597 -2548 -2484 -2467 -2512 -2539 -2508 -2513 -2504 -2482 -2430 -2394 -2407 -2400 -2419 -2382 -2346 -2307 -2262 -2205 -2181 -2178 -2176 -2146 -2075 -1973 -1906 -1677 -1609 -1519 -1488 -1429 -1447 -1473 -1467 -1468 -1515 -1508 -1507 -1511 -1573 -1564 -1539 -1516 -1508 -1507 -1494 -1509 -1521 -1542 -1551 -1570 -1580 -1584 -1543 -1497 -1486 -1584 -1566 -1572 -1559 -1562 -1656 -1748 -1811 -1833 -1845 -1850 -1855 -1862 -1882 -1905 -1915 -1913
-2718 -2755 -2746 -2685 -2536 -2359 -2287 -2291 -2324 -2357 -2360 -2351 -2364 -2412 -2486 -2559 -2622 -2669 -2682 -2650 -2606 -2594 -2610 -2642 -2673 -2660 -2631 -2567 -2482 -2513 -2550 -2558 -2535 -2544 -2551 -2507 -2460 -2458 -2472 -2472 -2461 -2413 -2368 -2317 -2284 -2286 -2280 -2262 -2228 -2168 -2100 -1988 -1873 -1784 -1745 -1732 -1751 -1709 -1490 -1504 -1503 -1507 -1553 -1547 -1541 -1542 -1585 -1586 -1573 -1557 -1541 -1533 -1529 -1527 -1535 -1550 -1557 -1571 -1603 -1607 -1578 -1516 -1502 -1587 -1590 -1636 -1641 -1680 -1737 -1782 -1815 -1835 -1848 -1858 -1868 -1877 -1881 -1887 -1887 -1891
-2703 -2762 -2771 -2721 -2621 -2479 -2430 -2442 -2471 -2487 -2466 -2440 -2436 -2465 -2493 -2553 -2626 -2693 -2729 -2722 -2705 -2708 -2693 -2696 -2685 -2663 -2628 -2549 -2472 -2530 -2562 -2583 -2569 -2587 -2553 -2505 -2530 -2535 -2538 -2529 -2468 -2418 -2388 -2378 -2383 -2375 -2339 -2287 -2230 -2150 -2064 -1957 -1839 -1803 -1784 -1776 -1784 -1707 -1651 -1617 -1614 -1620 -1614 -1588 -1564 -1555 -1586 -1601 -1588 -1579 -1569 -1564 -1555 -1567 -1572 -1569 -1573 -1590 -1603 -1625 -1602 -1522 -1502 -1586 -1632 -1646 -1644 -1665 -1721 -1778 -1820 -1846 -1859 -1868 -1880 -1888 -1892 -1901 -1906 -1904
-2682 -2758 -2793 -2769 -2700 -2605 -2584 -2578 -2575 -2584 -2562 -2531 -2513 -2514 -2543 -2571 -2626 -2704 -2754 -2752 -2755 -2768 -2748 -2716 -2678 -2654 -2605 -2527 -2495 -2542 -2586 -2612 -2612 -2607 -2554 -2510 -2534 -2554 -2568 -2547 -2493 -2443 -2463 -2470 -2438 -2383 -2331 -2285 -2205 -2107 -2007 -1935 -1879 -1881 -1853 -1853 -1845 -1726 -1666 -1646 -1635 -1633 -1617 -1603 -1593 -1594 -1607 -1632 -1631 -1621 -1617 -1635 -1617 -1644 -1649 -1646 -1628 -1615 -1625 -1637 -1592 -1514 -1581 -1629 -1629 -1638 -1645 -1659 -1749 -1780 -1827 -1859 -1865 -1875 -1885 -1893 -1901 -1919 -1940 -1906
-2701 -2754 -2808 -2809 -2759 -2704 -2681 -2665 -2648 -2641 -2621 -2590 -2557 -2552 -2585 -2604 -2617 -2698 -2770 -2798 -2794 -2788 -2758 -2718 -2700 -2662 -2596 -2567 -2555 -2567 -2628 -2648 -2635 -2611 -2598 -2601 -2611 -2616 -2580 -2563 -2564 -2560 -2542 -2481 -2408 -2350 -2284 -2193 -2128 -2062 -2018 -2004 -1987 -1970 -1942 -1907 -1812 -1729 -1687 -1677 -1673 -1654 -1640 -1626 -1612 -1614 -1624 -1644 -1656 -1675 -1699 -1728 -1759 -1785 -1808 -1804 -1723 -1655 -1688 -1736 -1702 -1636 -1640 -1652 -1671 -1674 -1701 -1781 -1798 -1808 -1843 -1876 -1881 -1884 -1897 -1910 -1914 -1914 -1916 -1920
-2719 -2747 -2808 -2836 -2800 -2751 -2730 -2699 -2675 -2676 -2664 -2642 -2622 -2623 -2653 -2677 -2689 -2695 -2775 -2829 -2826 -2809 -2790 -2761 -2728 -2688 -2672 -2674 -2652 -2630 -2662 -2663 -2640 -2607 -2604 -2620 -2631 -2634 -2599 -2590 -2593 -2576 -2537 -2480 -2391 -2320 -2237 -2159 -2137 -2117 -2103 -2079 -2047 -2017 -1954 -1867 -1795 -1752 -1722 -1698 -1685 -1677 -1666 -1649 -1640 -1650 -1669 -1671 -1662 -1676 -1702 -1729 -1732 -1751 -1806 -1857 -1776 -1695 -1745 -1798 -1778 -1702 -1669 -1653 -1614 -1648 -1701 -1789 -1807 -1838 -1860 -1891 -1933 -1899 -1918 -1934 -1933 -1932 -1928 -1932
-2722 -2754 -2816 -2856 -2830 -2795 -2759 -2702 -2685 -2702 -2706 -2710 -2706 -2687 -2684 -2700 -2733 -2738 -2793 -2833 -2845 -2831 -2818 -2788 -2737 -2724 -2727 -2721 -2706 -2664 -2667 -2681 -2657 -2617 -2617 -2632 -2632 -2622 -2613 -2601 -2585 -2556 -2501 -2468 -2407 -2350 -2283 -2245 -2207 -2161 -2114 -2049 -2007 -1952 -1883 -1818 -1831 -1821 -1774 -1731 -1707 -1699 -1691 -1673 -1670 -1691 -1701 -1679 -1640 -1649 -1667 -1657 -1627 -1670 -1772 -1877 -1864 -1778 -1788 -1809 -1811 -1793 -1729 -1683 -1558 -1598 -1675 -1777 -1841 -1859 -1868 -1896 -1938 -1931 -1941 -1950 -1948 -1955 -1955 -1958
-2768 -2797 -2840 -2880 -2866 -2815 -2762 -2729 -2719 -2717 -2728 -2743 -2727 -2697 -2673 -2694 -2742 -2794 -2834 -2848 -2846 -2841 -2836 -2819 -2805 -2777 -2754 -2739 -2714 -2687 -2696 -2688 -2667 -2654 -2659 -2656 -2640 -2620 -2613 -2578 -2536 -2511 -2485 -2466 -2441 -2395 -2322 -2228 -2146 -2129 -2106 -2050 -2009 -1970 -1919 -1905 -1904 -1880 -1815 -1754 -1727 -1714 -1713 -1702 -1707 -1726 -1714 -1645 -1547 -1572 -1677 -1657 -1639 -1661 -1748 -1874 -1923 -1846 -1828 -1821 -1812 -1822 -1810 -1752 -1633 -1645 -1714 -1809 -1833 -1844 -1882 -1902 -1931 -1947 -1968 -1971 -1972 -1982 -1986 -1982
-2780 -2803 -2861 -2898 -2875 -2820 -2800 -2774 -2747 -2735 -2752 -2752 -2723 -2719 -2701 -2687 -2712 -2778 -2827 -2851 -2845 -2855 -2860 -2856 -2841 -2821 -2784 -2747 -2708 -2712 -2730 -2727 -2693 -2692 -2694 -2687 -2656 -2632 -2625 -2586 -2559 -2514 -2478 -2438 -2389 -2321 -2265 -2192 -2145 -2124 -2104 -2085 -2068 -2045 -1990 -1948 -1928 -1909 -1837 -1773 -1743 -1725 -1723 -1735 -1749 -1748 -1723 -1660 -1543 -1579 -1692 -1708 -1769 -1787 -1827 -1896 -1949 -1920 -1903 -1868 -1828 -1831 -1851 -1834 -1761 -1786 -1821 -1856 -1857 -1821 -1872 -1923 -1955 -1959 -1977 -1987 -1991 -2006 -2015 -2012
-2805 -2805 -2873 -2913 -2903 -2875 -2843 -2795 -2764 -2769 -2784 -2775 -2746 -2750 -2737 -2723 -2737 -2794 -2837 -2865 -2878 -2886 -2883 -2875 -2861 -2843 -2812 -2772 -2716 -2747 -2757 -2745 -2727 -2713 -2715 -2684 -2667 -2659 -2657 -2629 -2590 -2532 -2491 -2446 -2402 -2363 -2287 -2198 -2150 -2130 -2120 -2106 -2069 -2029 -1965 -1921 -1859 -1874 -1859 -1796 -1764 -1749 -1732 -1753 -1788 -1776 -1759 -1715 -1569 -1588 -1711 -1756 -1839 -1870 -1879 -1888 -1941 -1973 -1963 -1927 -1890 -1866 -1883 -1862 -1844 -1868 -1867 -1890 -1893 -1878 -1896 -1934 -1968 -1974 -1986 -2000 -2014 -2037 -2055 -2052
-2859 -2853 -2893 -2925 -2925 -2908 -2848 -2783 -2774 -2790 -2799 -2804 -2789 -2781 -2761 -2736 -2751 -2802 -2833 -2859 -2894 -2894 -2887 -2882 -2874 -2859 -2843 -2805 -2767 -2778 -2772 -2757 -2744 -2745 -2737 -2696 -2675 -2680 -2685 -2646 -2599 -2562 -2534 -2501 -2482 -2394 -2269 -2179 -2164 -2160 -2154 -2120 -2048 -2008 -1935 -1832 -1688 -1759 -1837 -1840 -1802 -1773 -1760 -1775 -1812 -1813 -1787 -1743 -1624 -1594 -1731 -1808 -1859 -1900 -1918 -1906 -1925 -1976 -2000 -1982 -1925 -1891 -1890 -1870 -1886 -1902 -1916 -1946 -1938 -1933 -1932 -1934 -1975 -1987 -1995 -2016 -2056 -2085 -2105 -2109
-2897 -2888 -2916 -2932 -2933 -2906 -2830 -2769 -2788 -2800 -2808 -2814 -2817 -2801 -2768 -2744 -2753 -2802 -2842 -2879 -2897 -2899 -2906 -2902 -2892 -2878 -2859 -2814 -2812 -2823 -2809 -2784 -2764 -2766 -2750 -2724 -2716 -2716 -2708 -2690 -2643 -2609 -2577 -2537 -2488 -2389 -2288 -2214 -2199 -2185 -2156 -2097 -2042 -2016 -1939 -1810 -1615 -1686 -1792 -1829 -1819 -1783 -1792 -1814 -1854 -1854 -1799 -1726 -1577 -1644 -1810 -1880 -1867 -1888 -1934 -1938 -1945 -1995 -2023 -2012 -1935 -1906 -1899 -1880 -1890 -1921 -1961 -1964 -1963 -1954 -1936 -1942 -1982 -1996 -2005 -2036 -2085 -2121 -2156 -2169
-2936 -2909 -2936 -2954 -2948 -2891 -2810 -2777 -2793 -2809 -2818 -2827 -2829 -2802 -2776 -2761 -2762 -2807 -2855 -2888 -2902 -2920 -2927 -2922 -2913 -2901 -2881 -2867 -2877 -2863 -2839 -2816 -2786 -2784 -2760 -2752 -2752 -2734 -2693 -2669 -2627 -2590 -2555 -2514 -2449 -2365 -2316 -2250 -2207 -2173 -2138 -2045 -2028 -2020 -1963 -1863 -1710 -1657 -1757 -1796 -1817 -1817 -1834 -1842 -1865 -1882 -1838 -1772 -1671 -1725 -1847 -1905 -1888 -1886 -1928 -1955 -1956 -2018 -2050 -2005 -1956 -1938 -1896 -1886 -1938 -1978 -1968 -1960 -1976 -1982 -1965 -1977 -1993 -1998 -2013 -2041 -2076 -2131 -2189 -2201
-2972 -2957 -2958 -2969 -2957 -2876 -2814 -2804 -2806 -2814 -2833 -2843 -2843 -2813 -2795 -2781 -2760 -2808 -2862 -2899 -2921 -2933 -2945 -2941 -2937 -2927 -2901 -2885 -2881 -2874 -2859 -2834 -2809 -2791 -2775 -2781 -2775 -2745 -2693 -2648 -2608 -2560 -2534 -2492 -2419 -2387 -2329 -2269 -2226 -2195 -2170 -2141 -2116 -2036 -1899 -1827 -1744 -1675 -1712 -1779 -1840 -1836 -1840 -1837 -1870 -1909 -1909 -1900 -1880 -1860 -1894 -1907 -1887 -1889 -1925 -1977 -2003 -2039 -2074 -2027 -1977 -1951 -1892 -1929 -2000 -1991 -1984 -1986 -1992 -1998 -1987 -1984 -1998 -2010 -2032 -2062 -2086 -2143 -2221 -2243
-2982 -2981 -2977 -2981 -2968 -2927 -2862 -2840 -2854 -2837 -2856 -2865 -2857 -2837 -2819 -2801 -2778 -2812 -2858 -2912 -2940 -2952 -2958 -2960 -2956 -2952 -2936 -2908 -2896 -2859 -2833 -2829 -2821 -2801 -2794 -2795 -2782 -2753 -2711 -2669 -2616 -2556 -2518 -2460 -2402 -2418 -2383 -2317 -2268 -2244 -2204 -2187 -2124 -2018 -1856 -1860 -1891 -1812 -1771 -1823 -1891 -1863 -1862 -1866 -1886 -1930 -1941 -1944 -1957 -1939 -1917 -1897 -1877 -1871 -1905 -1951 -1987 -2063 -2089 -2041 -1968 -1971 -1918 -1936 -2000 -1999 -2005 -2011 -2022 -2021 -2006 -2009 -2019 -2033 -2062 -2096 -2147 -2215 -2299 -2311
-2987 -2992 -3000 -3002 -2985 -2953 -2885 -2870 -2879 -2876 -2882 -2881 -2877 -2856 -2832 -2811 -2791 -2816 -2872 -2926 -2953 -2958 -2966 -2965 -2960 -2959 -2953 -2940 -2925 -2892 -2846 -2814 -2812 -2809 -2805 -2796 -2773 -2732 -2701 -2670 -2621 -2585 -2528 -2520 -2469 -2447 -2467 -2409 -2353 -2350 -2293 -2225 -2128 -2024 -1920 -1945 -1934 -1869 -1832 -1865 -1943 -1966 -1927 -1916 -1925 -1956 -1967 -1948 -1933 -1913 -1897 -1888 -1878 -1875 -1903 -1937 -1974 -2087 -2114 -2073 -2000 -1984 -1961 -1944 -2023 -2007 -2016 -2027 -2043 -2037 -2038 -2061 -2059 -2064 -2092 -2152 -2223 -2288 -2321 -2357
-2989 -2999 -3007 -3007 -2994 -2980 -2937 -2900 -2895 -2899 -2899 -2898 -2893 -2878 -2852 -2838 -2818 -2828 -2902 -2952 -2964 -2975 -2976 -2968 -2971 -2969 -2960 -2948 -2941 -2907 -2884 -2866 -2849 -2830 -2810 -2785 -2769 -2739 -2686 -2670 -2630 -2579 -2539 -2509 -2475 -2463 -2494 -2469 -2404 -2384 -2321 -2236 -2142 -2052 -1983 -1955 -1932 -1881 -1865 -1904 -1971 -1992 -1948 -1943 -1985 -1991 -1987 -1966 -1925 -1906 -1900 -1910 -1912 -1907 -1931 -1972 -2032 -2095 -2126 -2086 -2009 -1986 -1979 -1960 -2006 -2025 -2024 -2040 -2065 -2050 -2073 -2129 -2152 -2147 -2129 -2165 -2247 -2326 -2373 -2416
-2988 -2999 -3004 -3009 -3007 -2995 -2966 -2925 -2911 -2911 -2914 -2918 -2912 -2896 -2879 -2858 -2829 -2857 -2933 -2978 -2986 -2986 -2986 -2984 -2983 -2979 -2969 -2956 -2948 -2920 -2891 -2884 -2867 -2838 -2812 -2799 -2795 -2758 -2692 -2656 -2611 -2555 -2507 -2467 -2441 -2438 -2446 -2423 -2362 -2320 -2277 -2214 -2129 -2049 -1990 -1952 -1923 -1898 -1897 -1927 -1959 -1959 -1936 -1939 -1978 -1994 -1996 -1983 -1950 -1931 -1930 -1944 -1946 -1941 -1955 -2053 -2089 -2154 -2159 -2111 -2057 -2028 -1992 -1959 -2006 -2056 -2087 -2114 -2127 -2134 -2148 -2179 -2200 -2185 -2166 -2166 -2212 -2307 -2395 -2454
-2983 -3000 -3007 -3013 -3014 -3002 -2978 -2918 -2906 -2896 -2902 -2915 -2905 -2877 -2873 -2851 -2828 -2851 -2924 -2964 -2990 -3007 -3011 -3005 -2998 -2989 -2975 -2955 -2943 -2933 -2904 -2877 -2860 -2840 -2808 -2790 -2788 -2763 -2702 -2672 -2670 -2683 -2443 -2403 -2374 -2358 -2339 -2296 -2232 -2193 -2169 -2131 -2075 -2017 -1970 -1938 -1919 -1911 -1915 -1926 -1928 -1928 -1927 -1937 -2028 -2063 -2069 -2051 -2023 -2016 -2007 -1984 -1973 -2004 -2032 -2078 -2116 -2158 -2186 -2161 -2111 -2060 -2005 -2031 -2047 -2053 -2105 -2139 -2152 -2168 -2208 -2259 -2266 -2232 -2209 -2224 -2240 -2280 -2349 -2445
-2987 -3002 -3003 -3002 -3007 -3004 -2993 -2954 -2919 -2916 -2932 -2947 -2942 -2918 -2888 -2878 -2875 -2885 -2932 -2983 -3023 -3025 -3024 -3014 -3007 -3002 -2987 -2972 -2962 -2955 -2916 -2914 -2903 -2854 -2816 -2797 -2795 -2764 -2726 -2752 -2761 -2771 -2754 -2741 -2726 -2603 -2459 -2421 -2101 -2069 -2060 -2042 -2011 -1974 -1942 -1922 -2207 -2227 -2197 -2163 -2123 -2075 -2027 -2056 -2080 -2120 -2118 -2086 -2050 -2033 -2016 -1990 -1982 -2031 -2070 -2109 -2136 -2169 -2202 -2181 -2103 -2076 -2054 -2049 -2041 -2042 -2095 -2152 -2178 -2203 -2268 -2327 -2313 -2277 -2267 -2279 -2281 -2287 -2339 -2430
-3009 -3021 -3022 -3039 -3038 -3020 -2997 -2960 -2946 -2954 -2973 -2972 -2972 -2946 -2908 -2897 -2910 -2948 -2986 -3036 -3051 -3059 -3050 -3039 -3023 -3029 -3014 -2998 -2981 -2972 -2967 -2943 -2920 -2882 -2853 -2829 -2804 -2789 -2810 -2820 -2758 -2778 -2810 -2797 -2749 -2671 -2504 -2506 -2495 -2477 -2424 -2353 -2274 -1947 -1927 -2337 -2323 -2300 -2249 -2191 -2144 -2154 -2092 -2106 -2131 -2142 -2138 -2118 -2078 -2037 -2003 -1992 -1996 -2035 -2080 -2123 -2176 -2209 -2221 -2192 -2068 -2032 -2030 -2042 -2040 -2022 -2052 -2129 -2202 -2244 -2328 -2393 -2370 -2316 -2305 -2307 -2309 -2312 -2355 -2440
-3020 -3032 -3044 -3066 -3074 -3058 -3034 -2987 -2992 -3003 -2996 -2986 -2986 -2969 -2938 -2929 -2988 -3019 -3054 -3067 -3069 -3074 -3062 -3043 -3032 -3040 -3033 -3019 -2997 -2982 -2966 -2962 -2937 -2900 -2873 -2812 -2816 -2883 -2906 -2854 -2789 -2803 -2840 -2826 -2822 -2710 -2665 -2679 -2622 -2536 -2473 -2391 -2331 -2291 -2319 -2369 -2391 -2378 -2294 -2232 -2199 -2208 -2161 -2152 -2160 -2164 -2163 -2168 -2124 -2039 -2001 -2010 -2023 -2040 -2081 -2131 -2208 -2250 -2258 -2244 -2151 -2084 -2087 -2081 -2058 -2027 -2053 -2175 -2260 -2273 -2362 -2447 -2428 -2365 -2335 -2337 -2347 -2342 -2375 -2456