ncols        120
nrows        120
xllcorner    133.58749999998014
yllcorner    33.3083333333135
cellsize     0.004166666667
NODATA_value -32767
1061 949 856 767 699 631 567 506 553 683 852 974 859 708 615 514 490 455 351 372 492 621 771 648 600 761 883 797 743 820 834 713 595 466 587 785 747 612 471 473 531 460 338 262 381 503 652 751 844 809 740 748 806 713 606 584 550 562 607 626 688 863 1028 1180 1277 1335 1375 1443 1496 1486 1481 1466 1508 1544 1441 1355 1232 1118 1158 1267 1314 1304 1257 1338 1351 1410 1502 1459 1327 1205 1074 946 983 1103 1310 1506 1524 1504 1477 1389 1271 1084 1005 1060 1211 1321 1441 1425 1347 1213 1096 1039 993 891 752 780 920 1002 988 1109
1057 1022 910 849 810 716 559 475 585 692 816 874 810 723 641 565 472 381 325 428 514 625 720 589 498 625 694 622 596 729 650 506 451 409 544 670 578 478 395 458 400 323 258 303 415 555 556 629 736 676 565 564 635 583 488 521 572 651 732 771 739 811 947 1149 1244 1272 1342 1454 1424 1364 1366 1393 1419 1424 1354 1246 1190 1196 1230 1276 1337 1381 1374 1423 1502 1534 1521 1444 1294 1155 1017 863 938 1098 1283 1336 1327 1336 1435 1435 1220 1015 934 1025 1091 1171 1316 1297 1305 1350 1314 1195 1012 835 782 727 771 869 887 1053
973 996 966 873 775 691 524 439 527 653 748 772 768 646 632 668 557 403 305 390 522 667 699 557 419 455 505 457 565 646 523 425 353 434 557 546 436 396 336 354 268 242 330 433 504 482 452 558 564 515 422 406 441 443 514 635 684 756 835 883 843 912 939 1037 1122 1201 1308 1400 1319 1202 1194 1181 1147 1168 1212 1240 1272 1264 1282 1357 1335 1328 1365 1433 1516 1556 1422 1372 1349 1179 948 809 968 1133 1153 1127 1132 1247 1397 1363 1199 1055 900 869 1015 1146 1190 1140 1189 1333 1391 1205 1025 910 769 686 709 754 888 1101
877 778 836 879 719 571 481 409 485 647 708 702 732 592 495 570 502 381 302 380 505 601 608 553 396 359 402 385 468 476 441 328 314 399 409 397 355 356 284 263 254 308 405 378 338 326 374 429 387 386 432 513 526 485 593 728 829 905 984 981 931 1023 1051 1070 1098 1155 1245 1223 1132 1073 996 954 967 1045 1153 1221 1231 1289 1354 1319 1201 1160 1194 1292 1420 1462 1373 1197 1169 1129 918 761 941 984 939 960 1040 1162 1333 1402 1299 1163 977 819 894 963 1003 1097 1250 1413 1447 1272 1134 1090 956 842 742 682 818 964
754 619 666 761 690 562 481 384 436 590 601 527 521 479 408 509 532 435 318 379 443 419 436 464 387 292 302 282 283 306 302 278 279 287 258 242 252 262 311 400 386 299 306 331 370 352 323 380 452 532 578 655 662 569 669 781 901 1004 1081 1098 1025 1101 1172 1212 1225 1201 1173 1080 974 902 839 829 937 1055 1065 1043 1100 1244 1314 1186 1098 1034 1076 1218 1328 1293 1241 1106 981 1025 871 703 803 790 866 1042 1177 1264 1317 1250 1164 1090 940 798 948 1078 1124 1219 1342 1459 1506 1414 1368 1327 1229 1080 936 719 710 909
608 506 505 583 571 471 416 353 401 504 544 514 442 409 358 399 394 387 301 371 349 275 265 286 275 253 247 281 330 266 271 247 264 268 247 313 344 388 488 504 420 420 422 456 533 454 382 479 578 703 770 768 730 646 703 824 936 1048 1158 1179 1093 1134 1240 1341 1322 1213 1134 1082 991 862 748 798 918 921 901 1009 1171 1305 1302 1153 1012 919 964 1071 1175 1087 1033 1036 867 845 805 678 658 768 935 1051 1136 1282 1281 1076 966 874 772 754 895 1084 1197 1185 1228 1368 1509 1588 1600 1457 1233 1007 851 711 663 857
545 465 403 452 528 499 412 329 382 494 509 483 470 435 372 301 287 311 276 338 327 252 329 375 342 296 266 366 390 300 326 359 316 350 329 370 476 514 560 562 508 576 572 575 575 448 414 529 652 767 878 924 921 831 773 855 956 1070 1212 1208 1199 1267 1283 1334 1314 1164 1039 972 895 794 733 702 750 797 918 1078 1188 1217 1303 1233 1038 833 810 933 1018 899 875 882 750 645 598 583 680 892 982 1060 1191 1345 1277 1135 1060 991 915 762 798 951 1012 1061 1180 1276 1261 1351 1472 1417 1278 1148 1010 768 594 663
592 515 396 394 496 497 397 312 359 417 362 329 357 407 340 264 250 277 287 273 277 310 443 473 348 321 373 417 510 430 491 494 413 389 414 449 567 663 706 714 652 681 713 689 608 522 463 552 708 819 891 945 1000 955 863 877 996 1107 1234 1312 1358 1374 1353 1353 1329 1159 1031 947 892 866 779 663 690 848 956 1094 1172 1086 1126 1199 1065 828 683 785 905 814 749 760 593 491 565 666 801 972 1095 1145 1256 1405 1392 1330 1290 1158 984 771 680 725 788 859 944 1036 1151 1282 1304 1236 1104 1021 918 753 596 591
517 525 405 335 409 481 406 299 315 313 259 266 264 305 296 265 249 290 394 402 394 395 419 369 308 403 494 496 591 576 613 620 544 508 573 554 635 800 906 884 815 808 894 891 791 671 525 507 621 740 836 915 997 982 903 936 1013 1114 1228 1325 1405 1356 1320 1310 1313 1250 1169 1052 946 853 778 687 618 687 830 1038 1160 1017 1023 1100 993 817 625 595 713 733 607 576 493 529 631 749 820 890 979 1102 1278 1453 1482 1445 1370 1166 991 854 799 723 635 779 940 1026 1052 1077 1073 1058 920 841 795 722 625 563
360 416 412 352 330 359 325 270 252 248 247 273 301 260 251 302 303 316 355 381 308 292 291 303 355 453 542 571 651 701 732 709 636 639 749 741 810 891 996 1058 1008 953 1024 1022 889 727 560 577 707 811 906 982 1038 982 941 1038 1118 1179 1245 1328 1353 1250 1170 1127 1152 1265 1319 1223 1147 1021 898 763 598 632 835 1034 1057 908 889 916 844 726 587 469 515 532 469 451 533 698 733 783 928 994 1052 1197 1375 1439 1316 1222 1335 1305 1152 1056 930 791 642 619 724 784 815 856 966 951 833 746 657 627 631 588
334 351 283 273 281 299 289 257 288 275 256 268 340 316 313 325 388 363 286 287 323 369 402 389 446 507 596 653 747 845 882 861 785 772 894 921 962 997 1110 1190 1138 1078 1103 1012 877 772 626 623 788 908 1018 1072 1086 1024 987 1083 1176 1253 1324 1315 1235 1216 1122 1000 989 1134 1220 1298 1261 1077 933 781 572 617 801 923 958 812 719 750 725 587 488 397 389 453 476 563 630 752 943 966 1022 1183 1258 1342 1388 1309 1111 1016 1117 1170 1110 1016 846 699 594 558 604 640 679 811 940 966 824 715 726 733 663 602
262 259 247 251 252 253 270 287 332 350 363 341 366 348 404 356 434 384 297 341 412 466 489 500 526 569 675 771 858 955 972 920 838 848 988 1069 1118 1096 1197 1307 1279 1223 1207 1104 1027 924 749 652 776 904 987 1084 1141 1112 1050 1057 1129 1226 1320 1255 1124 1061 1065 989 864 946 1070 1205 1237 1024 835 678 523 502 675 853 823 708 584 527 524 459 383 449 563 657 645 709 846 831 941 1097 1143 1263 1381 1280 1164 1193 1137 908 819 903 880 834 709 579 611 658 713 780 748 893 1035 997 844 850 893 756 634 743
291 283 275 316 356 361 388 370 371 445 421 364 369 346 398 386 474 409 298 326 421 524 585 612 631 692 787 870 937 1015 1074 1014 922 894 993 1118 1237 1222 1266 1296 1227 1180 1113 1036 969 929 837 698 740 868 1014 1105 1194 1190 1109 1157 1232 1275 1352 1290 1136 987 876 895 785 813 1004 1155 1175 1025 868 741 625 461 517 672 654 540 478 422 357 347 416 588 743 861 851 814 985 1056 1109 1222 1270 1314 1341 1168 946 924 949 842 662 714 669 683 586 546 622 779 863 973 947 979 1121 1060 1014 1040 938 748 701 880
448 440 366 316 372 465 465 386 380 456 446 391 396 392 410 461 490 389 290 347 463 573 657 706 757 820 888 960 1040 1096 1079 999 953 979 1077 1167 1198 1240 1282 1196 1096 1039 981 929 837 773 721 733 810 834 920 1031 1165 1279 1244 1257 1293 1196 1245 1277 1110 931 806 721 682 739 901 944 1003 1077 1000 817 632 454 383 427 442 377 335 336 396 462 589 661 829 1032 1107 1012 1086 1215 1274 1163 1097 1173 1146 1027 836 690 705 720 607 588 528 562 601 679 619 769 968 1162 1181 1181 1265 1234 1134 969 810 701 715 844
538 463 399 352 399 500 522 420 371 400 483 483 528 516 515 547 513 436 341 411 555 635 678 717 760 826 934 1008 1035 1035 1033 1011 1012 1054 1066 1033 1022 1089 1167 1117 1025 945 866 809 803 851 808 750 900 995 1010 1124 1256 1319 1337 1322 1261 1110 1082 1199 1144 1021 919 722 593 677 737 714 823 971 935 822 677 489 393 374 302 324 388 465 580 648 719 863 983 1120 1218 1205 1120 1080 1146 1021 871 907 901 807 709 560 548 571 581 514 588 694 793 770 658 802 1004 1122 1105 1063 1144 1180 1036 913 883 840 743 744
568 495 460 393 420 483 508 437 417 411 516 569 616 634 632 641 593 487 360 398 545 566 539 554 654 839 968 966 918 901 943 920 876 920 939 876 930 969 1075 1120 1033 967 879 860 925 973 881 778 875 1031 1172 1232 1185 1217 1341 1306 1135 1001 970 1091 1074 893 806 730 559 502 554 675 842 909 843 689 573 543 449 327 294 414 526 635 773 857 868 987 1103 1103 1170 1068 985 880 893 775 632 645 680 635 600 489 494 494 496 595 759 889 937 816 677 786 936 958 887 955 1126 1217 1111 1053 1001 949 840 745
616 536 480 403 399 452 511 513 485 461 553 637 692 725 712 680 604 503 378 345 460 459 419 500 634 810 933 875 791 759 824 843 738 794 814 789 831 905 1007 1090 1011 945 922 957 1046 1037 905 826 928 1090 1177 1117 1104 1200 1284 1195 1147 993 845 927 1021 889 700 578 512 480 620 781 853 766 701 588 463 409 376 282 373 496 650 768 906 1058 1125 1118 988 922 965 822 722 700 629 547 469 521 533 474 476 527 687 718 636 631 848 1002 1061 925 757 700 729 785 856 960 1084 1243 1212 1112 1033 878 785 812
581 527 464 405 452 517 580 592 569 557 647 715 771 763 702 606 506 410 367 369 341 338 348 424 567 768 831 771 667 622 714 739 648 659 698 743 843 962 1071 1125 1102 1066 1084 1083 1131 1048 923 876 1049 1135 1061 1040 1122 1229 1187 1061 1076 994 792 762 914 946 748 545 420 484 639 733 764 658 528 454 387 339 284 337 467 592 790 958 1059 1073 1011 958 801 726 725 595 496 506 469 398 412 422 460 546 512 534 730 847 717 638 821 989 1079 987 865 738 797 895 971 1025 1178 1330 1320 1258 1143 960 834 972
489 447 417 464 543 596 672 702 678 649 678 766 781 710 630 536 475 422 452 506 467 469 397 365 536 722 718 652 568 519 554 587 603 669 770 888 906 983 1109 1179 1148 1112 1101 1086 1143 1128 1029 931 1008 1008 1051 1154 1235 1238 1123 989 919 926 772 650 797 905 765 599 438 432 525 674 638 574 471 355 332 276 306 427 572 706 891 970 918 815 734 704 590 526 584 457 395 404 393 455 591 596 645 733 717 621 728 884 793 666 759 937 1045 942 830 772 790 903 1040 1164 1235 1223 1183 1206 1103 990 871 983
473 447 443 516 608 691 774 803 779 741 711 790 829 749 714 664 618 511 511 632 625 527 414 369 546 636 579 502 488 580 586 646 749 829 912 987 1080 1117 1129 1052 1026 968 960 963 1100 1180 1118 1050 984 1010 1082 1153 1240 1254 1189 1068 919 764 631 587 738 878 753 613 488 370 466 534 493 457 456 422 312 290 412 566 719 833 825 739 657 608 534 568 498 465 491 394 447 572 532 618 699 811 839 897 898 794 760 915 852 722 776 955 1024 972 978 985 877 878 1006 1070 1038 1040 1110 1188 1073 997 885 952
602 560 488 543 624 726 830 906 892 839 831 865 916 892 839 765 658 565 588 717 681 569 473 397 525 502 445 493 613 721 751 790 888 980 1050 1128 1158 1097 1020 918 848 809 813 916 1054 1083 1020 1055 1068 1121 1128 1190 1183 1096 1160 1129 1000 781 562 532 662 778 809 745 624 453 334 340 351 412 528 475 297 307 448 599 715 703 592 537 490 510 406 446 393 354 366 390 550 692 696 793 859 933 987 1024 1018 963 940 1023 927 817 852 1033 1202 1198 1179 1093 963 897 902 955 1048 1139 1207 1129 963 915 970 1096
762 653 534 595 685 753 859 944 956 949 963 949 912 925 871 771 685 702 741 792 712 595 478 382 448 421 473 570 669 800 828 790 844 937 1037 1118 1134 1035 899 803 737 670 737 872 883 870 860 1035 1100 1128 1187 1121 1052 981 987 1052 1002 791 600 457 528 664 740 678 625 531 390 296 295 444 503 364 247 360 442 522 518 523 494 382 369 435 335 334 352 454 538 407 496 676 800 818 844 856 866 886 827 890 998 1114 1032 1024 1010 1114 1281 1340 1261 1101 1114 1098 1055 1103 1213 1234 1212 1099 1028 1083 1139 1194
802 684 622 596 616 725 855 961 1007 1020 1003 935 847 819 888 876 825 802 774 761 713 598 517 399 380 462 591 721 736 706 687 674 785 909 989 1083 1082 996 919 815 700 611 688 744 679 731 911 985 933 1034 1108 1033 906 879 892 1006 974 781 552 415 483 599 638 541 470 414 366 340 304 419 341 251 301 449 455 419 363 394 385 313 312 330 380 494 560 593 592 412 419 529 628 619 668 650 674 708 700 799 969 1169 1263 1238 1245 1289 1329 1260 1256 1272 1290 1268 1228 1188 1149 1067 1037 1157 1205 1180 1122 1094
859 817 785 670 687 809 926 982 951 895 922 889 805 731 789 817 819 753 680 673 709 636 548 425 411 559 642 678 639 566 602 710 836 967 1062 1095 1037 964 900 847 732 602 607 617 626 804 908 836 876 1047 980 927 873 787 894 976 842 680 484 356 425 485 504 416 315 262 298 373 278 279 230 305 402 466 407 329 292 298 332 427 501 523 542 601 724 688 559 433 441 470 470 494 553 620 660 673 811 974 1096 1185 1311 1250 1158 1215 1166 1150 1174 1282 1254 1120 1085 1008 939 918 1053 1173 1186 1043 1002 1033
970 919 830 756 792 859 878 858 904 823 777 847 817 709 651 689 793 800 720 639 576 520 459 395 420 518 507 520 517 530 626 729 862 973 964 1013 991 923 877 871 772 631 504 504 651 825 848 752 866 981 925 807 742 671 840 936 861 731 564 390 308 314 347 334 223 187 214 325 314 211 247 351 426 459 447 356 290 297 362 505 578 655 706 785 858 766 614 468 440 584 650 674 725 704 620 732 865 1010 1061 1123 1191 1083 976 1040 975 979 1117 1183 1074 964 861 811 815 1002 1156 1111 1152 1105 948 934
867 919 911 842 793 770 771 740 841 817 713 745 774 675 595 643 688 731 726 679 622 609 554 487 403 412 408 433 480 547 658 801 931 892 846 905 934 819 847 839 693 591 527 460 539 638 722 677 822 961 920 775 605 582 701 839 980 904 739 579 439 333 229 246 193 260 238 224 234 211 288 321 314 293 288 277 358 433 369 364 511 647 696 730 795 706 562 448 517 656 640 629 580 592 622 683 821 997 989 1028 1079 955 837 883 835 981 1119 1050 906 793 713 741 849 997 1153 1124 1072 1135 1031 888
729 806 909 873 790 726 700 683 756 807 718 654 735 717 615 552 580 614 595 623 667 650 573 491 383 388 514 580 627 685 741 760 861 819 741 833 885 771 836 856 774 713 650 509 435 559 555 592 747 891 861 769 599 504 666 810 848 809 752 679 550 379 270 203 189 316 375 308 217 229 288 230 257 319 283 346 505 579 464 344 416 459 482 576 673 591 468 475 506 510 539 612 675 728 834 841 1007 1110 976 897 935 880 745 692 767 934 960 834 691 669 760 914 1019 1176 1269 1224 1078 1000 967 941
706 796 899 961 881 812 746 641 626 716 710 613 624 668 612 492 539 576 494 500 548 585 529 454 401 383 509 642 635 600 628 699 800 733 692 826 849 743 815 833 707 608 529 448 382 432 460 644 831 893 790 679 549 444 527 614 705 663 582 514 408 285 211 175 244 413 455 327 221 230 235 236 339 464 426 454 573 565 418 357 385 454 462 457 502 552 520 532 567 629 635 816 861 952 1029 1091 1144 1108 971 794 771 690 614 635 809 822 702 638 675 810 909 1004 1183 1216 1175 1136 1067 1053 1066 1143
696 797 910 971 954 875 775 682 570 619 687 625 511 496 470 434 473 507 475 455 476 518 532 494 395 385 466 585 563 526 636 759 794 664 658 785 747 701 845 900 807 720 649 593 457 353 442 651 779 829 808 686 581 421 452 575 672 595 447 388 295 193 161 241 363 382 280 241 286 372 383 382 444 586 607 600 562 417 387 464 489 541 563 522 515 512 619 706 741 798 721 854 1064 1198 1224 1182 1055 946 882 856 831 790 706 578 683 651 583 681 804 922 1062 1181 1269 1241 1247 1194 1143 1105 1114 1097
643 752 870 866 871 833 702 590 513 521 551 515 457 418 437 421 417 400 407 389 442 499 462 471 445 395 390 478 462 514 639 733 739 621 623 692 647 714 861 826 837 809 798 687 508 361 389 567 654 704 674 619 459 356 423 511 589 528 411 295 218 157 239 266 306 303 258 269 344 455 529 574 566 661 748 678 500 394 437 428 460 463 501 586 658 638 744 909 955 973 932 952 1118 1187 1136 1080 1072 1056 955 916 834 729 588 543 549 574 621 651 707 810 962 1125 1124 1029 1058 1066 934 884 948 913
650 792 806 755 735 728 700 617 531 447 429 433 489 523 497 422 420 460 448 393 424 462 421 391 399 410 416 416 412 433 513 633 622 561 525 562 634 797 814 672 659 657 691 673 559 430 339 473 618 590 547 538 500 399 299 360 413 366 288 202 143 209 292 313 336 351 398 374 278 342 514 598 662 632 608 580 469 409 471 490 556 600 621 739 824 815 811 797 797 898 1053 1177 1214 1209 1199 1060 970 914 772 705 603 523 540 553 682 798 887 860 897 977 1131 1129 1036 928 902 906 895 774 836 832
677 696 656 651 588 655 711 664 587 479 430 456 514 585 538 477 487 504 494 421 379 388 392 416 455 524 483 500 537 469 435 507 487 507 510 525 615 723 710 605 521 523 560 610 528 427 306 436 560 516 445 430 469 425 335 240 237 238 171 137 211 297 351 432 465 467 513 409 307 287 359 469 527 473 490 564 542 451 442 443 526 711 794 738 672 636 652 752 847 946 1084 1237 1278 1272 1179 995 818 688 614 503 456 483 511 594 765 949 1097 1133 1157 1149 1206 1142 1048 1021 1048 917 836 774 730 741
570 544 513 495 529 600 558 521 490 460 432 491 513 545 529 510 534 492 432 416 439 426 430 498 531 570 559 545 569 565 510 469 477 551 621 648 687 770 764 665 574 464 424 488 383 272 342 476 453 385 365 386 404 340 287 244 170 155 143 197 275 351 387 514 576 594 583 512 446 343 322 359 386 432 465 493 599 630 677 601 483 547 628 560 601 645 692 862 999 1138 1209 1216 1099 1109 1154 966 765 571 453 456 572 651 682 741 847 957 1075 1119 1107 1020 1007 1118 1151 1172 1160 1036 973 908 782 714
558 579 568 508 502 463 452 449 443 443 500 533 569 578 569 562 544 495 422 451 473 457 424 428 425 480 481 412 421 549 593 599 584 668 681 685 748 731 651 649 598 502 377 449 379 243 300 341 306 308 366 357 302 222 213 179 139 154 240 305 242 282 380 478 591 602 517 440 390 369 317 382 398 419 499 601 737 820 836 738 586 499 512 594 717 827 826 901 1043 1205 1132 1033 955 903 974 850 720 554 463 615 738 828 850 840 818 764 841 816 857 782 750 856 933 975 1061 1144 1045 915 786 701
583 529 524 517 454 454 500 514 528 538 568 579 607 572 517 485 468 448 416 430 439 409 353 293 302 327 320 260 327 438 550 635 665 692 634 619 663 630 540 548 533 423 294 356 388 241 185 253 329 373 361 273 180 152 141 136 170 214 285 277 288 345 449 560 549 493 484 478 478 387 329 391 520 598 616 699 835 807 712 681 697 663 684 693 795 911 1010 1074 1136 1187 1071 879 767 715 797 757 573 442 463 564 612 691 695 631 621 649 711 644 721 663 577 645 747 787 914 1043 1001 866 767 663
620 521 483 485 503 516 569 544 488 470 447 469 556 544 483 471 456 431 436 412 351 294 299 234 211 203 228 216 288 373 482 495 537 643 606 520 532 532 516 461 379 300 240 214 266 191 142 212 265 250 188 139 117 122 138 204 278 281 292 282 338 432 463 589 638 601 567 517 421 368 380 444 540 680 795 836 838 714 585 577 600 613 665 801 955 1103 1107 1051 988 1035 955 874 670 604 749 730 617 498 403 391 472 636 682 545 496 599 549 491 498 509 543 618 710 837 967 1028 949 787 662 697
626 523 544 555 517 476 489 416 336 354 320 367 457 494 481 510 494 422 396 382 339 254 222 188 165 178 195 240 313 393 394 343 422 565 567 458 374 428 492 487 405 294 184 154 154 131 102 108 119 114 125 146 150 168 227 248 314 378 366 381 388 433 556 660 685 575 471 426 379 418 522 607 652 746 789 733 705 590 532 493 588 704 827 878 989 1098 1052 904 828 888 750 690 571 595 759 788 714 595 580 529 393 467 572 503 413 451 439 482 563 624 749 849 913 992 953 855 828 794 649 652
555 523 467 424 372 351 420 386 272 255 253 350 359 362 379 417 406 344 337 299 284 248 187 177 142 178 240 332 389 372 296 271 395 506 504 487 333 292 332 359 285 207 129 99 96 103 110 116 119 132 165 239 251 257 309 335 353 421 488 482 513 507 609 629 563 527 546 478 392 421 529 670 647 666 617 579 571 466 491 590 703 878 1017 1086 1032 944 954 864 685 673 571 505 559 691 840 878 857 814 817 632 415 362 420 394 442 513 584 630 743 758 861 1010 1067 963 913 855 745 678 633 594
495 425 386 361 346 298 284 286 237 209 321 343 265 278 266 285 286 289 273 248 209 224 210 149 187 233 314 384 369 339 270 203 299 334 321 361 296 193 231 217 157 121 88 95 107 121 145 155 212 226 201 180 184 211 280 307 347 419 508 603 648 662 645 583 533 485 478 415 450 450 589 647 566 549 514 476 453 513 626 750 878 895 953 1075 934 761 765 714 569 559 480 560 674 814 940 958 946 923 765 561 362 312 349 480 613 660 734 774 825 932 951 1052 1142 1093 1059 988 843 731 697 658
409 318 283 266 260 256 248 219 191 166 262 253 182 185 167 214 289 351 323 280 215 170 167 141 208 254 336 391 330 262 219 154 165 189 187 224 191 131 125 118 94 107 113 142 187 226 261 226 260 315 273 211 221 188 264 273 378 511 570 652 642 607 593 516 482 460 442 453 520 562 572 534 503 491 478 423 457 626 721 813 796 720 861 983 858 692 568 529 495 490 477 642 816 919 946 807 741 838 767 558 397 309 422 589 749 842 897 918 956 972 1032 1097 1032 1056 998 887 789 708 701 736
348 319 285 222 180 186 209 210 206 143 152 165 123 183 229 251 289 304 274 240 219 232 236 158 136 210 290 307 243 180 123 87 87 96 112 123 148 173 184 193 151 196 219 259 266 280 313 305 312 294 261 305 275 196 235 282 336 450 545 625 595 533 522 548 548 458 480 518 564 609 587 611 644 669 600 428 381 471 573 707 624 616 807 877 753 589 431 451 496 425 539 652 729 830 827 657 618 694 632 542 383 315 436 598 755 918 1005 1046 965 846 897 931 856 916 936 857 791 779 850 738
360 295 265 233 183 203 220 187 160 130 97 108 135 193 180 161 223 233 212 203 196 252 246 185 102 124 155 153 133 107 86 68 80 121 170 223 268 305 264 199 138 147 164 192 219 263 317 371 352 349 389 360 229 197 267 383 393 377 426 524 593 597 637 606 547 467 463 499 595 699 760 771 731 658 637 563 392 375 478 566 457 548 663 671 582 442 410 453 409 442 521 592 738 737 659 528 576 591 451 403 311 372 507 615 772 899 897 954 913 758 731 770 752 866 985 977 859 856 881 781
376 323 292 295 254 277 269 254 220 170 91 76 116 118 103 118 163 197 190 158 104 122 137 107 76 94 106 147 151 114 82 67 87 125 158 202 208 231 205 164 146 156 158 212 199 235 293 409 492 474 385 303 224 278 295 370 461 506 508 535 611 654 604 543 477 508 595 580 570 716 712 681 697 613 498 491 420 346 323 383 319 393 429 494 417 360 409 358 432 545 617 752 730 591 522 439 492 469 326 291 337 452 620 737 838 890 793 843 768 721 658 726 779 856 1004 1034 975 1014 1046 994
284 255 213 229 204 198 176 210 211 141 94 66 87 85 121 131 171 199 187 171 110 60 59 66 108 155 148 173 160 120 72 60 69 96 118 144 168 221 210 202 192 164 156 176 222 309 408 500 506 392 297 217 238 316 413 448 496 469 441 453 560 579 516 501 513 638 715 693 604 636 621 545 519 492 447 418 389 352 317 302 265 258 381 405 320 344 350 399 533 668 765 791 744 658 554 463 384 336 304 423 535 584 615 759 891 801 722 725 675 642 705 812 940 972 1018 1107 1126 1065 1000 939
169 167 149 141 136 127 101 151 231 221 159 96 53 57 82 73 81 82 82 86 60 42 65 112 132 121 111 107 118 96 74 63 68 80 88 113 142 167 202 242 233 202 186 231 267 296 344 416 420 320 237 239 254 260 325 436 449 370 398 512 573 528 558 637 568 627 666 646 652 608 596 581 576 592 626 644 530 472 484 378 228 281 380 311 307 326 393 526 678 748 702 591 619 688 645 438 354 343 273 344 521 688 752 835 901 842 785 670 618 724 840 880 891 954 1091 1176 1068 925 818 747
169 187 184 157 119 97 96 140 209 169 100 64 45 35 37 35 37 37 34 32 34 44 62 82 85 79 81 96 122 120 76 60 60 66 78 105 140 188 229 275 301 219 192 260 296 272 309 370 339 297 255 287 314 333 277 317 350 356 454 559 605 577 602 691 613 608 641 680 717 723 777 779 801 820 785 760 675 583 437 256 234 361 309 283 405 492 500 565 676 626 552 492 445 490 536 377 306 265 291 328 463 601 713 836 865 877 808 671 582 700 779 836 973 1049 1150 1189 1075 970 793 613
221 261 211 174 162 137 92 95 139 157 140 78 40 41 30 26 27 26 27 28 33 41 54 51 51 52 66 92 100 84 49 48 58 80 136 120 174 258 300 322 274 238 294 370 377 357 351 323 299 283 276 318 374 388 356 287 304 352 415 537 654 612 671 661 643 638 561 581 684 789 769 776 817 891 821 628 489 405 269 245 317 348 324 278 419 555 599 652 672 638 690 596 411 410 504 367 247 233 316 423 444 529 686 806 777 732 673 556 615 747 856 977 1102 1146 1108 1010 928 825 733 600
277 265 236 226 219 163 122 116 74 75 71 44 32 32 32 23 22 24 27 33 36 42 48 49 50 52 56 58 53 44 37 43 83 124 149 171 146 158 187 268 327 316 364 417 375 338 239 200 264 333 326 356 392 361 300 304 349 386 445 557 644 652 700 688 605 560 525 570 709 754 670 676 794 806 752 641 444 264 203 311 351 254 254 295 380 447 544 664 736 719 611 489 349 346 374 264 267 293 337 465 602 684 778 743 657 600 545 528 652 798 945 1068 1085 956 911 836 759 671 614 620
206 161 162 178 144 144 141 122 89 52 21 22 20 26 34 27 25 34 33 35 35 39 42 46 48 47 45 40 36 35 36 57 130 177 207 217 157 150 192 288 399 400 375 355 237 180 149 197 260 349 343 329 292 236 214 290 395 412 513 615 618 609 593 646 685 616 502 461 505 561 584 600 692 609 566 487 386 269 220 331 258 307 423 479 503 545 589 613 685 589 463 393 363 247 227 285 388 448 474 475 559 697 793 783 783 716 544 510 626 707 847 949 917 798 735 828 834 805 762 776
186 92 74 115 71 63 58 45 62 72 26 16 17 19 20 21 27 29 30 33 35 37 41 43 41 38 37 32 33 45 67 124 195 224 185 150 176 233 285 343 324 275 260 247 149 123 173 255 308 359 318 238 199 222 282 326 430 497 502 533 514 531 486 556 681 637 547 478 407 386 389 462 497 445 466 368 289 207 243 253 277 405 467 507 504 451 439 547 659 586 527 540 443 282 220 366 446 456 387 349 445 524 581 717 838 716 519 497 562 633 722 768 846 684 582 713 797 826 749 756
116 59 37 32 28 17 16 20 40 28 15 12 13 16 16 18 26 29 32 33 34 35 34 32 31 32 30 30 48 103 153 163 156 174 201 221 270 296 285 241 174 136 120 123 107 138 180 229 291 272 218 166 191 232 277 364 438 502 436 445 483 466 438 515 597 620 628 598 473 349 260 322 345 449 494 404 290 181 200 242 346 364 418 383 333 381 504 545 598 680 618 483 402 311 214 261 262 278 311 402 419 449 542 686 759 665 523 448 528 624 676 787 829 709 554 539 695 703 637 730
69 58 75 38 36 21 14 23 35 16 11 11 12 16 19 23 26 27 30 31 30 27 27 28 28 27 28 46 62 94 125 92 109 209 299 308 283 181 153 111 94 95 93 116 104 154 220 225 212 174 156 188 217 252 287 335 420 455 412 390 472 476 391 426 468 556 670 624 451 261 244 286 375 437 521 481 357 241 181 177 278 375 356 287 388 510 549 464 490 573 582 518 418 404 333 201 184 254 339 456 561 609 689 799 830 681 522 431 548 717 774 691 619 632 614 469 527 622 591 631
108 73 45 21 9 8 8 10 9 10 11 12 15 16 20 22 24 27 26 24 23 23 25 26 26 25 30 54 48 50 57 89 189 243 190 156 159 97 70 70 67 86 113 93 130 170 190 154 145 161 209 245 266 318 344 313 332 392 404 425 401 450 393 355 467 511 588 583 378 215 216 325 391 373 431 482 376 279 191 223 278 335 237 307 385 463 458 411 443 531 481 361 366 417 315 216 183 290 429 511 663 791 839 915 881 742 584 464 433 533 660 697 548 487 516 447 533 635 564 548
56 34 33 9 5 5 7 7 7 9 13 16 20 31 26 20 22 21 19 20 21 23 23 24 24 24 48 60 43 50 71 140 205 151 82 65 59 50 45 51 74 107 104 102 98 96 119 156 211 183 176 195 270 264 240 190 230 365 437 407 387 352 352 330 370 364 487 547 445 252 165 221 307 275 331 344 326 267 190 206 227 235 214 356 450 388 390 392 402 458 462 319 253 218 180 217 307 382 542 663 748 881 850 823 771 629 519 455 404 472 613 709 594 468 429 420 560 647 604 536
17 2 3 2 3 5 6 6 6 8 14 26 23 25 21 18 17 17 19 20 21 22 22 21 20 25 37 38 60 121 130 157 149 68 43 37 33 31 44 66 93 84 68 93 143 129 116 172 171 134 185 207 181 150 169 236 346 414 421 415 371 381 414 331 303 280 375 498 444 288 234 171 170 232 216 245 321 379 256 163 136 194 313 400 465 366 410 377 389 483 452 390 316 187 161 322 481 518 586 751 885 952 861 708 626 557 601 512 397 411 585 638 498 436 385 410 501 503 536 557
2 2 3 4 5 6 8 14 7 8 9 11 13 15 16 16 16 16 17 18 19 19 20 18 21 26 31 38 89 171 204 161 64 22 20 23 25 36 53 61 80 81 68 113 115 146 157 141 113 158 186 141 119 157 224 320 348 390 354 345 411 486 469 423 294 255 337 481 487 417 333 295 166 132 144 226 287 366 300 220 150 188 363 425 402 322 384 363 369 449 491 467 327 175 223 368 554 702 757 838 945 911 750 647 651 667 727 577 418 411 590 554 438 377 358 443 505 448 490 475
2 4 5 10 26 15 19 12 7 6 7 9 11 14 15 15 16 16 16 17 17 17 17 18 24 27 29 32 58 116 130 54 20 12 13 17 28 34 40 38 55 75 86 90 93 133 120 111 103 109 130 141 118 182 297 366 318 319 358 332 372 418 402 415 291 274 434 541 573 533 500 428 259 153 116 211 228 312 255 129 161 255 402 363 317 293 350 319 383 386 416 337 207 152 241 372 502 648 762 800 836 843 739 769 808 778 718 549 399 374 489 470 396 346 411 404 405 389 421 481
1 4 5 9 30 46 47 23 8 7 8 9 13 20 15 14 14 14 15 16 16 17 16 17 23 25 25 42 55 57 44 19 12 10 10 17 22 22 24 26 44 60 60 71 97 125 113 90 78 85 101 103 158 263 300 310 342 309 304 287 297 340 365 323 251 283 430 553 487 388 439 498 360 223 110 140 189 222 162 144 280 381 411 370 266 273 349 309 373 357 369 266 142 168 282 428 556 640 602 618 710 848 842 801 837 809 656 545 451 350 314 388 355 326 348 345 388 433 509 599
3 3 5 9 8 10 13 18 17 9 11 10 11 14 13 13 14 15 14 13 13 14 13 17 21 22 23 26 22 18 15 12 11 9 8 11 16 22 31 34 34 48 59 91 107 114 94 55 57 84 144 219 270 272 226 248 299 348 320 267 286 277 311 239 242 360 506 607 523 340 295 399 332 210 118 112 178 143 169 289 357 391 371 387 285 286 350 278 299 325 277 161 153 319 370 493 594 588 507 637 737 721 704 621 689 773 665 530 492 373 300 360 317 333 370 471 557 554 619 694
4 3 4 4 5 15 75 82 45 26 38 43 24 14 11 12 12 13 12 11 11 12 11 15 18 18 19 19 17 15 13 11 9 8 10 23 24 26 47 85 55 86 125 132 132 75 39 55 103 178 253 261 247 237 190 212 278 266 256 277 253 224 192 229 368 479 524 547 488 362 221 295 303 203 108 70 106 115 238 340 349 342 358 404 282 251 299 261 235 261 214 134 264 437 530 573 516 514 446 555 678 602 524 564 703 800 696 588 535 392 313 298 382 486 538 586 673 705 689 812
2 2 2 5 31 63 109 123 62 28 18 39 42 16 9 10 10 11 11 9 10 10 9 12 15 15 16 16 15 14 12 10 9 6 7 13 11 15 36 54 83 122 108 70 58 36 50 111 194 248 265 238 206 180 189 143 189 218 223 300 345 305 179 226 375 457 490 500 410 390 204 213 273 182 92 57 110 169 248 288 291 295 319 315 211 208 226 224 148 128 135 156 306 483 493 503 454 402 468 547 609 512 467 567 719 781 721 532 419 352 289 319 467 611 660 680 749 831 783 860
3 99991 1 3 31 78 142 119 23 3 3 6 23 15 8 8 8 10 11 8 8 9 8 7 10 11 12 13 13 16 17 11 11 9 5 5 7 10 18 52 95 69 45 30 31 27 76 163 263 229 196 175 145 122 136 132 199 195 222 342 386 349 202 227 386 394 431 433 331 377 247 128 188 182 60 81 135 175 233 230 238 248 266 223 203 254 309 284 149 102 157 227 306 426 387 445 387 360 432 482 485 426 499 651 745 731 686 590 520 370 281 376 507 535 545 623 738 889 956 937
28 14 4 3 2 8 30 25 7 9 12 9 6 7 7 5 7 8 8 8 8 8 7 5 6 8 9 9 9 12 12 9 8 6 6 4 5 7 37 83 48 24 21 16 27 76 152 242 255 224 212 221 161 75 91 118 179 165 240 322 337 312 191 219 356 325 423 370 264 335 288 158 101 61 31 53 103 138 189 181 203 257 222 185 249 298 304 239 110 151 266 304 366 394 317 320 351 434 434 382 444 531 607 656 699 693 557 482 441 347 356 314 357 433 580 732 816 897 1027 1009
11 6 2 4 5 12 23 50 73 68 46 30 10 6 6 5 5 6 6 6 6 6 6 4 4 5 6 7 7 5 6 6 7 6 6 6 5 15 61 40 20 10 10 21 63 152 209 195 164 201 244 225 135 49 54 110 152 154 222 275 302 194 138 229 337 271 363 311 237 340 296 178 108 41 25 29 54 103 162 139 190 233 164 174 265 249 237 190 105 194 323 358 354 329 284 366 409 333 356 472 617 676 616 674 697 553 453 413 461 471 466 329 368 526 618 725 877 962 1003 958
35 54 50 37 49 52 73 108 72 33 12 21 18 6 4 5 5 4 6 5 5 5 5 3 4 3 6 9 8 6 6 5 7 9 9 8 9 23 27 13 8 7 17 37 85 132 148 133 136 170 225 162 83 39 60 84 119 132 202 258 290 270 152 201 339 250 232 217 258 359 285 182 123 67 26 23 36 70 102 126 199 163 191 273 277 213 208 138 97 189 338 347 274 261 371 388 289 293 397 580 685 602 560 619 602 507 392 387 440 501 502 343 377 553 672 757 811 883 882 886
58 82 58 32 39 26 33 41 18 6 7 33 27 8 6 7 8 9 8 6 6 7 5 3 5 3 4 -3 -4 -5 -7 -7 -7 -6 -6 -5 -4 -2 7 9 7 16 76 108 145 135 114 106 116 161 183 90 38 27 35 42 70 128 186 211 247 250 176 182 291 206 190 192 271 316 302 287 260 173 39 22 25 48 66 95 152 101 169 232 227 182 224 126 129 262 339 273 223 293 315 283 282 411 487 600 596 508 424 455 410 402 377 346 382 319 306 287 368 478 567 632 709 822 781 855
16 37 29 21 12 15 29 18 13 7 7 12 12 11 10 9 8 6 -4 -4 -5 -5 -4 -5 -10 -12 -8 -8 -10 -13 -13 -12 -11 -11 -10 -10 -9 -6 -1 6 12 37 106 137 126 98 87 75 90 121 81 30 16 15 21 32 73 123 149 165 174 146 136 210 228 176 139 187 197 221 305 385 327 194 72 20 18 38 55 60 98 77 98 135 159 214 197 119 96 229 230 172 190 263 234 239 327 493 598 582 498 473 338 271 276 371 445 346 243 282 336 315 385 540 665 729 777 809 701 740
12 25 22 12 11 28 34 19 13 11 10 9 9 -6 -8 -10 -10 -10 -10 -8 -7 -7 -7 -8 -10 -12 -8 -8 -10 -13 -13 -12 -11 -11 -10 -10 -9 -6 -5 -5 27 48 68 66 84 90 84 67 59 54 20 10 10 15 24 40 60 76 90 119 101 154 206 243 201 167 137 132 177 250 342 396 317 177 56 19 16 25 36 26 69 127 167 221 217 220 142 55 120 193 144 179 260 213 231 308 445 501 539 540 471 431 297 216 216 346 442 330 227 294 480 523 451 525 694 811 763 681 623 717
50 16 8 11 11 12 11 7 -6 -6 -7 -8 -10 -10 -10 -10 -11 -12 -12 -12 -12 -12 -13 -14 -14 -16 -16 -16 -17 -17 -16 -15 -14 -14 -13 -13 -12 -11 -9 -5 25 29 34 41 71 74 57 47 23 13 7 7 8 13 24 34 29 32 46 68 70 127 151 208 157 139 146 132 253 345 367 335 238 132 40 15 14 16 20 23 79 135 185 201 156 150 153 69 154 181 128 149 153 196 343 449 464 430 443 461 408 326 253 183 244 339 295 216 324 361 414 548 637 662 746 771 642 552 629 765
16 10 -8 -7 -9 -10 -10 -10 -10 -10 -10 -12 -11 -11 -12 -12 -13 -14 -14 -15 -16 -16 -17 -18 -18 -19 -20 -20 -20 -20 -19 -18 -18 -18 -17 -17 -17 -13 -6 -5 1 4 13 21 36 36 21 15 12 11 11 12 11 11 12 15 14 14 18 19 29 69 118 151 129 103 114 188 276 297 297 243 151 72 29 12 11 13 13 21 84 130 154 127 100 141 171 87 101 143 128 209 279 312 421 456 407 457 509 500 377 242 172 198 261 241 204 312 401 499 526 603 666 712 718 642 531 550 706 835
-10 -11 -10 -9 -9 -9 -12 -13 -12 -12 -13 -14 -14 -14 -15 -15 -16 -16 -17 -18 -19 -19 -20 -20 -20 -20 -24 -24 -23 -22 -20 -20 -20 -20 -20 -21 -21 -19 -16 -16 -7 -10 -6 -2 12 12 -1 -2 -5 -10 -10 -10 -10 -10 -7 -1 6 6 7 19 46 69 86 97 77 71 112 173 204 212 248 210 131 63 18 9 9 11 9 16 54 88 82 52 85 139 122 66 84 167 273 373 405 448 431 370 434 489 456 424 389 216 170 224 171 228 309 397 490 563 637 580 647 699 614 497 510 639 759 819
-11 -13 -12 -12 -11 -13 -16 -16 -18 -18 -17 -16 -17 -18 -18 -18 -19 -19 -19 -20 -20 -20 -20 -21 -23 -23 -26 -26 -24 -24 -24 -24 -23 -23 -24 -24 -23 -20 -19 -19 -18 -18 -13 -10 -15 -13 -16 -16 -15 -15 -15 -15 -13 -12 -12 -10 -5 1 8 17 36 51 53 48 35 41 76 112 135 179 169 160 111 58 19 8 7 9 8 12 30 35 22 35 83 105 66 61 123 241 337 342 349 362 358 401 459 403 274 287 310 182 123 150 145 273 396 480 534 617 566 480 553 610 504 471 610 701 733 701
-14 -15 -15 -15 -15 -17 -18 -19 -20 -20 -19 -19 -20 -20 -20 -20 -20 -20 -20 -22 -23 -23 -23 -24 -25 -25 -26 -26 -26 -26 -26 -27 -27 -27 -26 -26 -24 -21 -21 -21 -20 -20 -22 -21 -20 -20 -19 -19 -17 -17 -17 -17 -16 -16 -16 -15 -14 -14 -13 -2 7 21 21 13 15 20 30 54 64 81 88 79 62 43 20 8 7 7 6 7 9 9 11 14 28 59 101 143 194 274 312 331 368 346 370 477 447 307 190 187 220 202 143 170 199 302 403 460 518 497 440 483 543 491 438 548 643 616 605 580
-14 -15 -17 -18 -15 -17 -18 -19 -20 -20 -19 -19 -20 -20 -20 -20 -20 -20 -20 -22 -23 -23 -23 -24 -25 -25 -26 -26 -26 -26 -26 -27 -27 -27 -26 -26 -24 -21 -21 -21 -20 -20 -22 -21 -20 -20 -19 -19 -17 -17 -17 -17 -16 -16 -16 -15 -14 -14 -13 -5 -5 -5 -5 -3 -1 -1 10 20 26 25 22 17 16 12 12 12 9 7 4 4 6 8 8 15 55 89 151 215 302 367 402 410 394 308 370 444 399 261 141 174 191 146 120 213 346 415 397 426 389 372 457 583 492 379 509 616 620 511 452 432
-16 -18 -19 -21 -22 -19 -20 -20 -22 -22 -23 -23 -24 -23 -24 -24 -24 -23 -24 -24 -25 -25 -26 -26 -26 -26 -27 -27 -28 -29 -30 -30 -30 -30 -29 -27 -25 -24 -22 -22 -21 -22 -25 -25 -23 -23 -21 -20 -20 -19 -19 -19 -19 -19 -19 -19 -19 -19 -18 -14 -14 -13 -13 -13 -11 -10 -10 -10 -10 -10 -7 -10 -6 7 7 8 9 6 3 3 3 6 9 25 66 90 154 254 346 371 319 399 421 314 326 397 397 273 139 138 210 144 169 319 432 483 357 309 350 476 578 599 421 327 477 565 486 458 387 334
-19 -20 -20 -21 -22 -20 -22 -22 -24 -24 -25 -26 -27 -27 -27 -27 -27 -26 -26 -27 -26 -26 -26 -28 -27 -27 -27 -27 -29 -30 -31 -31 -32 -32 -31 -31 -29 -29 -27 -27 -25 -27 -27 -28 -26 -26 -24 -23 -23 -22 -21 -21 -21 -21 -21 -21 -20 -20 -20 -19 -18 -17 -16 -16 -15 -16 -15 -14 -14 -14 -13 -11 -11 -10 -10 -10 -11 -12 -11 2 3 6 15 39 78 100 167 272 308 283 350 401 331 279 368 454 328 206 118 96 122 96 189 308 417 485 351 275 397 517 519 490 366 268 398 483 397 333 318 249
-20 -20 -21 -21 -22 -23 -24 -24 -26 -26 -26 -27 -27 -28 -29 -29 -29 -28 -28 -29 -28 -28 -28 -29 -29 -29 -30 -30 -30 -30 -31 -32 -33 -33 -33 -34 -34 -33 -31 -31 -30 -31 -30 -31 -31 -31 -29 -27 -26 -25 -24 -24 -23 -23 -24 -23 -24 -24 -23 -21 -20 -20 -20 -20 -19 -18 -17 -17 -17 -17 -17 -18 -14 -13 -13 -13 -12 -10 -10 -10 -10 5 6 19 77 125 179 251 232 366 437 332 257 336 462 480 350 232 135 68 78 175 302 403 493 538 396 258 290 403 377 308 242 280 414 435 307 228 156 133
-21 -22 -25 -25 -24 -26 -26 -26 -28 -28 -28 -29 -29 -29 -29 -29 -30 -30 -30 -29 -29 -29 -31 -30 -31 -31 -32 -32 -32 -32 -33 -34 -35 -35 -36 -38 -37 -35 -33 -33 -35 -35 -35 -35 -34 -34 -32 -30 -29 -28 -27 -27 -27 -27 -26 -25 -26 -26 -26 -25 -24 -22 -22 -22 -22 -21 -21 -21 -20 -20 -20 -19 -10 -16 -16 -16 -16 -15 -13 -11 -10 -10 2 10 45 115 180 185 250 390 343 246 318 481 545 494 375 230 131 66 140 230 321 430 522 519 383 265 183 258 246 208 260 376 472 422 235 120 161 259
-24 -25 -26 -26 -26 -27 -28 -28 -29 -29 -29 -29 -30 -31 -31 -31 -31 -32 -32 -31 -32 -32 -33 -32 -32 -33 -33 -33 -33 -34 -35 -36 -37 -37 -38 -40 -39 -38 -38 -38 -40 -40 -39 -38 -37 -37 -36 -35 -35 -34 -34 -34 -33 -31 -31 -31 -30 -30 -29 -28 -27 -27 -26 -26 -25 -24 -23 -23 -22 -22 -22 -21 -20 -18 -18 -18 -18 -17 -16 -13 -12 -12 -9 8 29 60 119 146 271 275 225 268 400 557 592 458 314 187 103 66 167 264 338 431 520 489 376 276 154 231 197 239 341 444 490 394 269 146 189 347
-24 -27 -26 -26 -26 -28 -28 -28 -29 -29 -29 -29 -30 -31 -31 -31 -31 -32 -32 -31 -32 -32 -33 -32 -32 -33 -33 -33 -33 -34 -35 -36 -37 -37 -38 -40 -39 -38 -38 -38 -40 -40 -39 -38 -37 -37 -36 -35 -35 -34 -34 -34 -33 -31 -31 -31 -30 -30 -29 -28 -27 -27 -26 -26 -25 -24 -23 -23 -22 -22 -22 -21 -20 -18 -18 -18 -18 -17 -16 -13 -12 -12 -9 -5 -2 28 80 144 270 215 234 383 461 555 547 425 269 128 66 88 212 267 358 470 523 474 335 221 119 150 185 281 295 355 440 419 256 125 234 421
-27 -27 -28 -28 -27 -28 -29 -30 -31 -33 -31 -31 -31 -32 -33 -33 -33 -33 -34 -33 -34 -34 -34 -34 -34 -36 -35 -35 -35 -35 -36 -38 -39 -39 -40 -42 -42 -42 -43 -43 -45 -45 -43 -42 -42 -42 -41 -41 -40 -38 -37 -37 -37 -36 -36 -34 -33 -33 -32 -31 -31 -30 -28 -28 -26 -25 -25 -25 -24 -24 -25 -24 -22 -22 -22 -22 -20 -19 -18 -16 -14 -14 -12 -7 -2 46 128 225 244 179 282 375 455 517 414 341 239 70 70 139 188 245 342 431 482 431 353 244 110 179 295 314 198 197 240 309 226 133 290 474
-30 -30 -29 -29 -30 -30 -32 -35 -34 -34 -34 -34 -33 -33 -34 -34 -34 -34 -37 -35 -36 -36 -37 -37 -37 -38 -38 -38 -37 -38 -39 -40 -41 -41 -42 -43 -43 -44 -45 -45 -47 -47 -47 -47 -47 -47 -45 -44 -43 -42 -40 -40 -40 -39 -39 -38 -37 -37 -37 -36 -35 -33 -31 -31 -29 -28 -27 -27 -27 -27 -28 -27 -26 -25 -25 -25 -24 -21 -19 -17 -15 -15 -13 -12 -10 58 125 203 155 230 303 394 453 463 371 250 141 52 115 168 217 304 374 429 432 347 296 312 166 128 227 245 140 80 107 213 161 226 391 505
-34 -33 -32 -32 -33 -34 -35 -37 -39 -38 -37 -37 -36 -36 -36 -36 -35 -37 -39 -38 -39 -39 -39 -39 -40 -39 -39 -39 -40 -41 -42 -43 -44 -44 -45 -46 -46 -47 -50 -50 -50 -51 -51 -52 -51 -51 -49 -48 -47 -46 -44 -44 -43 -42 -42 -42 -41 -41 -41 -40 -38 -37 -36 -36 -34 -32 -31 -31 -29 -29 -28 -28 -28 -28 -27 -27 -27 -25 -22 -19 -17 -17 -15 -13 -10 40 83 135 152 230 275 345 317 305 299 271 141 60 146 203 265 327 360 383 407 315 193 203 214 117 77 106 163 111 112 130 124 250 413 473
-38 -37 -41 -36 -36 -37 -37 -38 -39 -40 -40 -39 -41 -42 -40 -40 -40 -40 -41 -41 -42 -42 -41 -41 -42 -42 -42 -42 -42 -43 -44 -46 -47 -47 -47 -48 -49 -51 -54 -54 -54 -52 -54 -55 -54 -54 -53 -51 -50 -49 -47 -47 -46 -45 -45 -45 -45 -45 -44 -43 -42 -41 -40 -40 -38 -35 -33 -33 -31 -31 -30 -30 -29 -29 -28 -28 -28 -28 -25 -22 -19 -19 -17 -14 -10 12 47 95 146 198 241 256 190 204 239 139 45 63 112 174 230 257 290 333 379 292 150 89 151 146 70 104 75 80 182 166 91 196 366 401
-40 -41 -41 -41 -40 -41 -42 -36 -40 -40 -41 -41 -41 -44 -43 -43 -43 -43 -43 -43 -44 -44 -44 -45 -45 -45 -46 -46 -47 -47 -48 -50 -50 -50 -50 -51 -52 -53 -57 -57 -56 -53 -54 -56 -55 -55 -55 -54 -53 -52 -52 -52 -51 -50 -50 -49 -49 -49 -48 -46 -45 -44 -42 -42 -40 -38 -36 -36 -36 -36 -38 -35 -33 -33 -33 -33 -32 -31 -30 -26 -21 -21 -19 -17 -15 -2 23 79 134 160 189 157 111 145 183 71 24 66 109 147 192 262 272 284 310 242 127 47 42 86 58 147 146 186 310 331 277 303 321 248
-40 -41 -41 -41 -40 -41 -42 -36 -40 -40 -43 -41 -44 -45 -46 -43 -43 -43 -43 -43 -44 -44 -45 -45 -45 -45 -46 -46 -47 -47 -48 -50 -50 -50 -50 -51 -52 -53 -57 -57 -56 -53 -54 -56 -55 -55 -55 -54 -53 -52 -52 -52 -51 -50 -50 -49 -49 -49 -48 -46 -45 -44 -42 -42 -40 -38 -36 -36 -36 -36 -38 -35 -33 -33 -33 -33 -32 -31 -30 -26 -21 -21 -19 -17 -13 -2 11 40 93 117 125 79 70 120 139 31 15 49 85 134 186 214 207 245 198 160 101 24 28 37 36 124 205 267 378 400 308 198 186 248
-43 -43 -45 -45 -45 -45 -44 -42 -46 -46 -49 -48 -49 -47 -48 -48 -46 -46 -49 -48 -48 -48 -48 -47 -50 -51 -51 -51 -51 -51 -52 -54 -55 -55 -55 -56 -56 -58 -60 -60 -60 -60 -60 -60 -59 -59 -59 -58 -58 -55 -56 -56 -55 -54 -54 -53 -52 -52 -51 -50 -48 -47 -46 -46 -44 -43 -41 -41 -45 -45 -43 -42 -36 -34 -35 -35 -35 -35 -33 -29 -25 -25 -20 -19 -13 -5 -8 -10 16 36 41 39 45 112 123 20 11 25 63 110 151 166 165 169 156 112 46 17 20 56 125 81 132 250 276 237 173 194 323 406
-49 -49 -50 -50 -49 -50 -49 -50 -50 -50 -52 -53 -53 -51 -50 -51 -51 -51 -52 -51 -48 -51 -52 -47 -54 -55 -56 -56 -56 -55 -56 -57 -58 -58 -59 -59 -60 -62 -62 -62 -63 -63 -63 -63 -62 -62 -62 -62 -62 -61 -59 -59 -56 -58 -57 -57 -55 -55 -54 -53 -52 -51 -49 -49 -48 -48 -46 -47 -46 -46 -44 -43 -41 -39 -38 -38 -38 -38 -38 -35 -29 -29 -23 -20 -17 -13 -10 -10 -10 8 8 10 22 97 101 19 18 17 34 80 118 109 82 85 124 108 25 40 45 84 185 155 101 102 104 120 175 284 411 479
-52 -53 -52 -52 -52 -53 -55 -55 -55 -55 -56 -57 -57 -55 -50 -53 -54 -55 -57 -56 -56 -56 -56 -57 -58 -59 -60 -60 -59 -61 -60 -60 -61 -61 -62 -62 -62 -64 -65 -65 -65 -66 -66 -66 -65 -65 -65 -65 -65 -64 -64 -64 -63 -63 -62 -60 -59 -59 -58 -57 -55 -54 -53 -53 -53 -52 -50 -48 -47 -47 -45 -46 -46 -45 -44 -44 -42 -43 -42 -39 -35 -35 -30 -26 -20 -17 -14 -14 -7 -5 -10 7 11 45 32 29 65 44 21 56 88 67 55 56 42 21 36 83 123 138 182 236 228 208 231 280 349 380 407 489
-55 -56 -56 -56 -55 -56 -57 -58 -50 -60 -60 -61 -60 -59 -59 -59 -56 -58 -59 -61 -60 -60 -60 -61 -61 -62 -63 -63 -59 -60 -61 -64 -65 -65 -65 -66 -66 -68 -70 -70 -69 -69 -69 -68 -68 -68 -68 -68 -68 -67 -66 -66 -65 -66 -65 -64 -62 -62 -61 -60 -59 -58 -57 -57 -56 -56 -54 -53 -51 -51 -52 -52 -51 -49 -48 -48 -48 -46 -44 -41 -39 -39 -35 -32 -25 -20 -19 -19 -13 -12 -10 -10 -10 -10 11 32 61 69 62 63 48 27 24 23 9 8 31 71 112 156 206 271 303 326 366 392 364 377 480 547
-58 -59 -59 -59 -59 -59 -60 -61 -63 -63 -63 -64 -63 -63 -62 -62 -63 -62 -62 -63 -64 -64 -65 -65 -65 -65 -67 -67 -67 -60 -66 -66 -69 -69 -70 -70 -72 -72 -73 -73 -72 -71 -71 -71 -71 -71 -71 -71 -71 -70 -69 -69 -68 -68 -69 -69 -67 -67 -65 -64 -63 -63 -62 -62 -62 -61 -60 -58 -58 -58 -57 -56 -56 -54 -53 -53 -53 -51 -47 -45 -45 -45 -44 -38 -35 -24 -20 -20 -19 -18 -15 -13 -13 -13 -10 13 28 52 58 33 14 10 8 7 9 10 20 61 116 190 226 251 338 380 379 327 347 490 601 702
-58 -59 -59 -59 -59 -59 -60 -61 -63 -63 -58 -64 -63 -62 -62 -62 -63 -63 -66 -67 -67 -68 -70 -65 -65 -65 -67 -67 -67 -66 -67 -67 -69 -72 -70 -70 -72 -72 -73 -73 -72 -71 -71 -71 -71 -71 -71 -71 -71 -70 -69 -69 -68 -68 -69 -69 -67 -67 -65 -64 -63 -63 -62 -62 -62 -61 -60 -58 -58 -61 -61 -61 -56 -54 -53 -53 -53 -51 -47 -45 -45 -45 -44 -38 -35 -24 -20 -20 -19 -18 -15 -13 -13 -13 -12 -10 -1 12 16 13 9 8 5 8 9 10 27 77 129 162 212 283 387 402 312 275 429 578 692 781
-60 -62 -59 -62 -62 -62 -63 -64 -66 -66 -58 -66 -65 -65 -66 -66 -66 -67 -67 -67 -72 -72 -72 -73 -69 -69 -70 -70 -71 -71 -71 -71 -72 -72 -73 -73 -74 -74 -76 -76 -76 -76 -75 -75 -74 -74 -74 -74 -73 -73 -73 -73 -72 -72 -72 -72 -71 -71 -69 -68 -67 -67 -67 -67 -67 -65 -65 -64 -63 -61 -61 -61 -60 -59 -58 -58 -58 -56 -54 -52 -52 -52 -50 -46 -43 -32 -27 -27 -22 -20 -19 -18 -17 -17 -15 -11 -10 -10 -6 -4 -5 5 5 5 8 15 40 107 179 229 245 283 309 285 217 278 364 478 614 748
-62 -64 -64 -64 -65 -65 -65 -67 -68 -68 -67 -67 -68 -69 -70 -70 -69 -70 -70 -71 -72 -74 -74 -75 -76 -73 -74 -74 -75 -76 -76 -76 -76 -76 -75 -77 -76 -77 -78 -78 -79 -79 -79 -79 -79 -79 -78 -78 -77 -76 -76 -76 -77 -76 -76 -75 -74 -74 -73 -72 -71 -70 -71 -71 -71 -71 -69 -69 -66 -66 -65 -65 -65 -64 -64 -64 -63 -62 -61 -61 -58 -58 -51 -54 -50 -46 -39 -39 -30 -27 -23 -20 -20 -20 -19 -17 -14 -12 -11 -11 -11 -10 -10 6 11 21 44 116 200 257 231 191 192 197 275 375 460 512 623 740
-65 -66 -66 -66 -68 -68 -68 -67 -70 -70 -70 -70 -72 -71 -72 -72 -72 -73 -73 -74 -73 -72 -76 -77 -78 -80 -78 -78 -79 -79 -80 -80 -80 -80 -79 -77 -79 -81 -81 -81 -82 -83 -83 -83 -82 -82 -82 -81 -81 -81 -82 -82 -81 -79 -79 -78 -78 -78 -76 -75 -75 -74 -74 -74 -74 -74 -72 -72 -71 -71 -70 -69 -68 -68 -67 -67 -67 -68 -67 -66 -65 -65 -59 -57 -54 -51 -49 -49 -41 -43 -34 -28 -24 -24 -21 -21 -20 -19 -17 -17 -15 -11 -14 -6 -1 21 27 92 162 160 160 254 362 375 395 519 604 643 664 685
-67 -68 -69 -69 -70 -70 -71 -71 -72 -72 -73 -73 -73 -73 -73 -73 -74 -75 -76 -77 -78 -75 -76 -79 -79 -81 -82 -82 -83 -85 -84 -84 -84 -84 -83 -82 -83 -81 -83 -85 -85 -86 -87 -86 -85 -85 -85 -86 -85 -86 -86 -86 -85 -84 -83 -82 -82 -82 -81 -79 -79 -79 -78 -78 -77 -76 -75 -75 -76 -76 -74 -73 -72 -72 -72 -72 -73 -73 -71 -67 -68 -68 -65 -60 -59 -57 -57 -57 -55 -48 -41 -36 -33 -33 -29 -25 -22 -21 -20 -20 -18 -15 -15 -10 -9 10 42 71 114 210 300 390 464 527 558 608 652 578 560 609
-70 -72 -72 -72 -72 -72 -73 -73 -74 -74 -74 -75 -76 -76 -63 -76 -77 -78 -79 -80 -81 -81 -80 -79 -84 -84 -84 -85 -86 -87 -87 -88 -87 -87 -87 -87 -87 -87 -83 -85 -87 -89 -90 -89 -89 -89 -89 -90 -90 -89 -89 -89 -88 -88 -87 -87 -86 -84 -85 -84 -83 -83 -82 -82 -80 -79 -79 -80 -80 -80 -78 -78 -78 -79 -77 -77 -79 -79 -76 -73 -71 -71 -69 -67 -64 -62 -62 -62 -60 -57 -51 -46 -41 -41 -36 -33 -27 -25 -23 -23 -21 -20 -19 -16 -13 -13 24 54 118 210 300 365 431 524 610 663 592 473 523 501
-70 -72 -72 -72 -72 -72 -73 -73 -73 -74 -74 -75 -76 -76 -76 -76 -77 -78 -79 -80 -81 -81 -82 -83 -84 -88 -87 -87 -89 -87 -87 -88 -87 -87 -87 -87 -87 -87 -87 -87 -88 -87 -87 -89 -89 -89 -89 -90 -90 -89 -89 -89 -88 -88 -87 -87 -86 -86 -85 -84 -83 -83 -82 -82 -80 -79 -79 -80 -80 -80 -78 -78 -78 -79 -77 -77 -79 -79 -73 -73 -71 -71 -69 -67 -64 -62 -62 -62 -60 -57 -51 -46 -41 -41 -36 -33 -27 -25 -23 -23 -21 -20 -19 -16 -13 -13 11 41 96 187 262 308 384 480 547 566 475 402 422 334
-72 -73 -74 -72 -74 -74 -76 -76 -76 -76 -77 -77 -78 -79 -80 -80 -81 -81 -83 -84 -85 -85 -85 -86 -87 -86 -88 -89 -90 -91 -90 -90 -90 -90 -90 -91 -91 -91 -91 -91 -92 -93 -93 -93 -93 -93 -93 -94 -95 -92 -92 -92 -92 -93 -92 -91 -90 -177 -175 -90 -88 -88 -88 -88 -86 -84 -83 -83 -83 -83 -83 -83 -84 -85 -85 -85 -86 -84 -83 -79 -75 -75 -74 -71 -68 -66 -65 -65 -65 -63 -59 -53 -47 -47 -44 -41 -34 -30 -27 -27 -25 -24 -23 -19 -16 -16 -13 31 78 135 218 287 359 424 476 467 426 355 334 183
-74 -75 -76 -76 -76 -77 -78 -78 -78 -76 -79 -80 -81 -82 -79 -83 -84 -85 -86 -87 -87 -87 -90 -88 -89 -89 -90 -91 -92 -92 -93 -96 -94 -94 -94 -95 -95 -95 -95 -95 -96 -96 -96 -96 -96 -96 -93 -96 -97 -96 -95 -95 -95 -95 -95 -95 -97 -180 -95 -93 -91 -90 -90 -90 -90 -89 -89 -90 -89 -89 -88 -89 -90 -90 -91 -91 -91 -90 -89 -85 -82 -82 -78 -75 -73 -71 -70 -70 -68 -66 -64 -62 -57 -57 -52 -47 -43 -37 -33 -33 -31 -30 -27 -21 -18 -18 -15 22 58 131 215 251 305 380 415 373 395 309 259 113
-76 -77 -78 -78 -79 -79 -79 -80 -80 -80 -81 -82 -83 -84 -85 -85 -86 -88 -89 -89 -90 -90 -90 -91 -91 -92 -93 -93 -94 -96 -97 -97 -99 -97 -99 -99 -99 -99 -99 -99 -99 -99 -99 -99 -99 -99 -100 -100 -100 -103 -105 -103 -100 -100 -100 -100 -99 -99 -98 -96 -94 -92 -94 -94 -95 -95 -93 -94 -95 -95 -94 -94 -95 -95 -95 -95 -94 -93 -92 -91 -90 -90 -86 -82 -79 -77 -76 -76 -73 -71 -70 -68 -64 -64 -59 -53 -49 -46 -38 -38 -37 -35 -30 -24 -20 -20 -11 25 74 129 174 232 307 337 303 290 296 297 203 96
-78 -80 -81 -81 -81 -81 -82 -82 -83 -83 -83 -84 -85 -86 -89 -89 -89 -91 -91 -91 -92 -92 -92 -92 -93 -94 -95 -95 -96 -99 -100 -100 -100 -102 -100 -101 -102 -104 -104 -102 -103 -103 -102 -103 -103 -103 -103 -103 -103 -107 -103 -106 -103 -102 -102 -101 -101 -101 -101 -101 -101 -101 -101 -101 -101 -101 -101 -101 -101 -101 -107 -107 -98 -98 -98 -98 -98 -96 -96 -97 -96 -96 -94 -88 -86 -85 -81 -81 -82 -77 -75 -73 -69 -69 -67 -62 -55 -53 -47 -47 -44 -40 -34 -26 -21 -21 -12 22 61 112 179 233 249 225 213 219 238 310 184 81
-80 -82 -83 -83 -83 -83 -84 -85 -86 -86 -83 -88 -87 -89 -91 -91 -91 -91 -92 -93 -94 -94 -94 -95 -96 -99 -99 -99 -99 -99 -99 -103 -104 -104 -106 -104 -104 -104 -104 -106 -107 -107 -107 -107 -107 -107 -106 -107 -107 -107 -103 -106 -105 -105 -105 -104 -103 -103 -104 -104 -104 -103 -104 -104 -104 -104 -103 -104 -104 -104 -107 -107 -103 -103 -102 -102 -99 -99 -99 -99 -100 -100 -99 -98 -94 -92 -81 -81 -86 -81 -78 -78 -75 -75 -71 -71 -69 -62 -59 -59 -53 -48 -40 -30 -20 -20 -14 17 92 142 163 136 125 143 146 175 233 270 104 116
-80 -82 -83 -83 -83 -83 -84 -85 -86 -86 -87 -88 -87 -89 -91 -91 -91 -91 -92 -93 -94 -94 -94 -95 -96 -99 -99 -99 -99 -100 -101 -105 -107 -107 -108 -109 -110 -105 -106 -106 -107 -107 -107 -107 -107 -107 -106 -107 -107 -106 -105 -105 -108 -111 -105 -104 -103 -103 -104 -110 -104 -103 -104 -104 -104 -104 -103 -104 -104 -104 -104 -103 -103 -103 -102 -102 -112 -99 -99 -99 -100 -100 -99 -98 -94 -92 -91 -91 -86 -81 -78 -78 -75 -75 -71 -71 -69 -62 -59 -59 -53 -48 -40 -30 -20 -20 -14 41 81 90 75 40 47 59 103 138 226 193 63 104
-82 -84 -86 -85 -85 -86 -86 -88 -89 -89 -89 -90 -90 -90 -91 -91 -92 -92 -96 -95 -96 -96 -98 -99 -99 -100 -101 -101 -102 -103 -104 -104 -106 -111 -112 -112 -113 -114 -111 -111 -110 -110 -110 -110 -110 -110 -110 -111 -110 -109 -193 -108 -109 -109 -114 -114 -114 -106 -106 -107 -110 -106 -107 -107 -108 -109 -108 -110 -110 -110 -111 -111 -109 -109 -108 -108 -106 -107 -109 -116 -105 -105 -103 -105 -100 -99 -96 -96 -92 -87 -82 -79 -77 -77 -74 -77 -75 -68 -65 -65 -62 -60 -48 -35 -27 -27 -22 -7 43 24 11 11 16 33 70 131 158 79 72 204
-85 -86 -87 -86 -87 -88 -89 -90 -91 -91 -91 -91 -92 -92 -93 -93 -93 -93 -96 -98 -100 -100 -100 -101 -102 -103 -103 -103 -104 -105 -106 -106 -106 -116 -108 -116 -116 -117 -119 -114 -115 -115 -114 -114 -114 -114 -123 -115 -116 -188 -191 -114 -114 -114 -114 -113 -111 -119 -121 -110 -111 -111 -113 -113 -114 -116 -117 -118 -117 -117 -117 -118 -117 -118 -121 -121 -120 -118 -108 -115 -113 -113 -110 -110 -114 -110 -103 -103 -100 -98 -93 -88 -83 -83 -83 -83 -84 -81 -75 -75 -71 -67 -57 -46 -32 -32 -25 -16 -9 -9 -1 8 10 16 44 89 60 125 211 293
-87 -88 -88 -88 -89 -90 -91 -92 -93 -93 -93 -89 -89 -95 -92 -95 -96 -97 -99 -100 -101 -101 -102 -103 -105 -106 -107 -107 -108 -108 -110 -110 -111 -111 -117 -120 -120 -120 -121 -124 -118 -119 -118 -117 -116 -116 -118 -119 -120 -187 -119 -119 -118 -119 -119 -118 -117 -117 -119 -122 -115 -116 -119 -119 -121 -123 -122 -125 -127 -127 -127 -125 -125 -129 -137 -137 -147 -159 -157 -134 -126 -126 -126 -130 -138 -127 -116 -116 -109 -102 -99 -96 -90 -90 -89 -87 -88 -83 -77 -77 -74 -74 -70 -54 -41 -41 -29 -19 -12 -11 -9 -9 -4 8 27 60 113 185 210 249
-89 -90 -90 -90 -91 -92 -93 -93 -94 -94 -95 -95 -96 -97 -98 -98 -99 -100 -101 -102 -104 -104 -110 -106 -107 -109 -110 -110 -111 -112 -114 -114 -116 -116 -122 -123 -119 -124 -125 -127 -129 -123 -123 -122 -121 -121 -123 -125 -125 -126 -125 -125 -124 -125 -126 -125 -125 -125 -125 -123 -124 -125 -128 -128 -128 -130 -129 -129 -132 -132 -134 -137 -138 -144 -143 -143 -162 -208 -206 -150 -138 -138 -152 -170 -158 -136 -123 -123 -117 -111 -103 -100 -97 -97 -93 -93 -89 -86 -82 -82 -79 -81 -76 -65 -55 -55 -42 -27 -21 -19 -19 -19 -12 -3 23 74 112 143 167 203
-91 -92 -92 -92 -93 -94 -94 -95 -95 -95 -96 -97 -98 -100 -100 -100 -101 -102 -104 -105 -106 -106 -108 -110 -111 -112 -113 -113 -114 -117 -118 -119 -120 -120 -122 -125 -127 -130 -130 -130 -131 -132 -129 -129 -132 -128 -129 -130 -177 -132 -133 -133 -132 -133 -134 -134 -135 -135 -135 -134 -134 -134 -129 -132 -134 -137 -133 -136 -147 -132 -164 -166 -172 -185 -180 -180 -185 -236 -306 -270 -231 -231 -237 -196 -160 -138 -127 -127 -122 -118 -112 -103 -99 -99 -98 -96 -93 -91 -88 -88 -85 -83 -80 -75 -66 -66 -55 -44 -38 -34 -26 -26 -24 -16 16 38 102 139 181 231
-91 -92 -92 -92 -101 -94 -104 -95 -95 -103 -96 -97 -98 -107 -100 -100 -113 -102 -104 -114 -106 -106 -108 -109 -111 -112 -113 -113 -114 -117 -118 -119 -120 -120 -122 -122 -124 -139 -135 -133 -133 -134 -135 -137 -128 -128 -173 -130 -130 -132 -133 -133 -132 -133 -134 -134 -135 -135 -135 -134 -134 -134 -132 -131 -145 -148 -133 -136 -147 -147 -164 -166 -172 -185 -180 -180 -185 -236 -306 -270 -231 -231 -237 -196 -160 -138 -127 -121 -122 -118 -112 -103 -99 -99 -98 -99 -93 -91 -88 -88 -85 -83 -80 -75 -66 -66 -55 -44 -38 -34 -26 -26 -24 -16 -15 31 74 139 170 196
-93 -95 -99 -95 -96 -96 -96 -96 -97 -97 -98 -100 -100 -101 -102 -102 -104 -106 -107 -108 -110 -110 -111 -113 -114 -116 -117 -117 -119 -121 -122 -123 -124 -124 -126 -127 -129 -130 -134 -138 -140 -138 -137 -138 -141 -168 -171 -133 -135 -139 -141 -141 -141 -141 -143 -144 -144 -144 -147 -147 -145 -140 -140 -140 -141 -143 -153 -143 -161 -153 -181 -201 -233 -264 -278 -278 -258 -314 -366 -350 -282 -282 -240 -174 -146 -135 -129 -129 -124 -121 -118 -111 -104 -104 -104 -99 -98 -94 -93 -93 -89 -87 -85 -81 -74 -74 -66 -58 -53 -45 -33 -33 -35 -26 -23 6 37 94 138 152
-96 -96 -99 -97 -97 -98 -98 -99 -100 -100 -101 -101 -103 -105 -106 -106 -108 -109 -111 -112 -113 -113 -114 -117 -119 -121 -122 -122 -125 -126 -127 -128 -128 -128 -129 -131 -134 -136 -134 -138 -140 -141 -142 -142 -143 -146 -171 -135 -140 -145 -148 -148 -150 -151 -152 -153 -155 -155 -156 -157 -157 -150 -155 -155 -157 -159 -153 -160 -161 -162 -173 -198 -267 -369 -399 -399 -399 -424 -410 -299 -187 -187 -166 -147 -139 -134 -129 -129 -126 -122 -119 -116 -111 -111 -109 -99 -100 -99 -98 -98 -96 -94 -91 -88 -84 -84 -77 -70 -61 -56 -53 -53 -43 -40 -31 -25 8 34 97 128
-98 -98 -100 -100 -99 -100 -101 -101 -101 -101 -103 -106 -108 -109 -110 -110 -112 -113 -115 -116 -118 -117 -119 -121 -123 -125 -128 -128 -131 -131 -132 -132 -133 -133 -134 -139 -139 -139 -145 -137 -138 -144 -144 -150 -150 -151 -155 -147 -156 -152 -157 -157 -160 -161 -160 -162 -163 -163 -162 -163 -166 -164 -166 -166 -170 -173 -174 -175 -178 -169 -180 -180 -272 -374 -470 -470 -464 -401 -437 -287 -201 -201 -175 -152 -140 -133 -129 -129 -127 -123 -120 -118 -115 -115 -111 -109 -105 -103 -102 -102 -100 -99 -99 -96 -92 -92 -85 -79 -73 -66 -59 -59 -55 -42 -35 -23 -20 2 33 52
-99 -103 -101 -101 -101 -102 -104 -106 -105 -107 -108 -109 -112 -112 -107 -114 -115 -117 -118 -111 -122 -122 -123 -125 -127 -129 -132 -132 -135 -136 -137 -138 -139 -139 -142 -143 -146 -149 -153 -153 -147 -145 -145 -151 -160 -160 -161 -166 -175 -168 -168 -168 -167 -169 -173 -174 -179 -179 -180 -183 -185 -186 -191 -191 -191 -195 -195 -196 -198 -198 -205 -227 -193 -382 -511 -511 -503 -400 -327 -259 -211 -211 -176 -160 -147 -137 -132 -132 -128 -124 -121 -120 -118 -118 -116 -112 -109 -108 -106 -106 -104 -103 -101 -100 -98 -98 -94 -89 -84 -78 -67 -67 -65 -55 -45 -29 -22 -14 3 16
-103 -102 -104 -104 -105 -105 -109 -112 -112 -112 -112 -113 -115 -116 -117 -117 -119 -121 -123 -126 -128 -128 -129 -129 -131 -133 -136 -136 -138 -141 -143 -142 -142 -144 -147 -150 -154 -158 -161 -161 -163 -152 -152 -156 -161 -169 -172 -177 -181 -185 -180 -180 -182 -184 -188 -192 -196 -196 -198 -201 -203 -207 -211 -211 -212 -212 -212 -213 -215 -215 -218 -228 -253 -207 -230 -388 -515 -512 -312 -242 -201 -201 -180 -167 -158 -148 -139 -139 -135 -130 -126 -121 -117 -117 -112 -109 -111 -112 -110 -110 -108 -106 -104 -103 -100 -101 -98 -94 -89 -82 -75 -75 -70 -64 -55 -37 -27 -27 -20 -16
-105 -102 -104 -104 -105 -106 -109 -112 -112 -112 -112 -113 -115 -116 -117 -117 -119 -121 -123 -126 -128 -128 -120 -129 -124 -133 -136 -136 -138 -145 -138 -142 -144 -144 -147 -147 -154 -158 -161 -161 -165 -165 -165 -165 -163 -174 -187 -191 -192 -193 -199 -180 -182 -184 -188 -192 -196 -196 -198 -201 -203 -207 -211 -211 -212 -212 -212 -213 -215 -215 -218 -228 -253 -272 -388 -330 -411 -512 -312 -242 -201 -201 -180 -167 -158 -148 -139 -139 -135 -130 -126 -121 -117 -117 -112 -109 -111 -112 -110 -110 -108 -106 -104 -103 -100 -101 -98 -94 -89 -82 -75 -75 -70 -64 -55 -37 -27 -27 -20 -16
-104 -105 -103 -107 -108 -110 -113 -116 -115 -115 -105 -117 -118 -120 -121 -121 -123 -125 -127 -130 -132 -132 -132 -133 -135 -137 -144 -144 -143 -145 -138 -149 -152 -152 -155 -158 -161 -164 -167 -167 -166 -173 -172 -175 -176 -180 -179 -210 -210 -208 -210 -218 -200 -203 -207 -209 -213 -213 -216 -220 -223 -230 -234 -234 -234 -231 -231 -232 -234 -227 -236 -239 -245 -250 -308 -308 -477 -540 -501 -281 -217 -217 -190 -175 -166 -154 -144 -144 -138 -132 -130 -125 -118 -118 -113 -110 -113 -115 -113 -112 -112 -110 -109 -106 -103 -103 -101 -98 -94 -90 -83 -83 -75 -68 -62 -54 -42 -42 -32 -21
-107 -109 -110 -110 -111 -113 -115 -117 -104 -118 -119 -120 -122 -124 -126 -120 -127 -128 -130 -132 -135 -135 -136 -137 -139 -140 -143 -143 -147 -150 -152 -154 -157 -154 -160 -163 -167 -170 -174 -165 -178 -183 -184 -193 -199 -192 -192 -203 -228 -227 -228 -231 -238 -228 -229 -233 -240 -240 -242 -247 -254 -258 -263 -263 -263 -256 -255 -256 -256 -256 -258 -264 -268 -272 -301 -301 -396 -511 -548 -315 -246 -246 -216 -196 -185 -174 -161 -161 -145 -141 -135 -129 -125 -125 -121 -113 -118 -119 -116 -109 -109 -113 -112 -110 -106 -106 -103 -100 -99 -93 -85 -85 -79 -72 -68 -63 -54 -54 -42 -30
-110 -112 -109 -114 -115 -116 -118 -120 -121 -121 -122 -124 -126 -129 -130 -130 -132 -132 -134 -136 -138 -138 -146 -141 -143 -146 -149 -149 -151 -154 -157 -162 -161 -161 -165 -170 -170 -171 -187 -194 -191 -195 -201 -212 -218 -218 -223 -238 -243 -240 -250 -258 -262 -269 -252 -259 -266 -266 -268 -274 -270 -290 -293 -293 -284 -280 -282 -279 -282 -282 -283 -284 -289 -293 -310 -310 -379 -489 -560 -371 -283 -269 -248 -222 -210 -194 -179 -179 -165 -154 -146 -139 -135 -135 -132 -124 -123 -124 -123 -123 -120 -118 -115 -114 -113 -108 -104 -101 -100 -96 -89 -89 -82 -78 -74 -68 -61 -61 -54 -43
-113 -115 -117 -117 -118 -119 -120 -122 -124 -124 -125 -127 -129 -132 -134 -134 -127 -136 -137 -139 -146 -142 -144 -146 -147 -151 -152 -152 -156 -141 -180 -178 -177 -175 -174 -171 -171 -199 -209 -209 -215 -228 -238 -241 -250 -250 -251 -262 -272 -273 -272 -283 -284 -287 -292 -295 -287 -287 -297 -306 -313 -330 -321 -321 -311 -307 -306 -309 -308 -308 -311 -306 -305 -304 -317 -317 -392 -541 -586 -424 -325 -325 -261 -259 -235 -218 -202 -202 -187 -173 -163 -157 -146 -146 -137 -130 -127 -128 -127 -127 -124 -121 -118 -114 -110 -112 -106 -104 -101 -100 -91 -91 -86 -83 -79 -73 -67 -67 -61 -51