ncols        70
nrows        70
xllcorner    38.50833333332182
yllcorner    17.766666666654842
cellsize     0.004166666667
NODATA_value -32767
2 1 1 1 99991 1 1 1 2 3 3 8 10 9 8 8 8 -1 -15 -30 -48 -67 -87 -108 -128 -146 -162 -174 -177 -164 -143 -119 -96 -73 -53 -37 -28 -22 -18 -18 -18 -19 -20 -22 -25 -29 -32 -35 -38 -42 -47 -55 -69 -86 -105 -127 -151 -177 -203 -229 -255 -279 -301 -320 -336 -343 -346 -346 -345 -342
1 2 1 1 1 1 3 1 2 2 3 3 5 4 4 4 4 -3 -18 -34 -51 -73 -95 -119 -143 -166 -186 -202 -206 -192 -166 -135 -107 -80 -57 -39 -28 -21 -17 -15 -15 -15 -17 -17 -19 -23 -26 -28 -31 -33 -38 -45 -60 -79 -100 -124 -150 -177 -206 -235 -263 -289 -314 -335 -352 -360 -362 -361 -357 -353
1 1 1 2 2 2 2 -1 1 -9 1 2 -4 -4 -4 -4 -4 -12 -24 -39 -55 -77 -102 -129 -156 -183 -210 -232 -242 -223 -190 -152 -118 -86 -58 -38 -26 -19 -16 -14 -13 -13 -13 -13 -16 -18 -19 -21 -23 -25 -28 -35 -51 -72 -95 -120 -148 -178 -208 -240 -270 -298 -326 -351 -371 -380 -379 -376 -371 -366
2 2 1 2 1 2 2 -3 -2 -24 -21 -20 -18 -16 -15 -15 -18 -23 -32 -44 -60 -80 -105 -135 -167 -196 -228 -259 -277 -252 -211 -169 -127 -88 -56 -34 -23 -16 -13 -11 -11 -11 -12 -12 -13 -14 -15 -14 -16 -19 -21 -26 -43 -65 -90 -116 -146 -177 -210 -242 -275 -307 -337 -366 -388 -398 -394 -390 -384 -378
3 2 2 2 1 2 1 -1 -1 2 2 1 -31 -25 -23 -24 -28 -30 -35 -46 -60 -78 -101 -131 -167 -195 -230 -272 -306 -268 -221 -177 -128 -83 -46 -26 -18 -13 -11 -9 -9 -10 -10 -10 -12 -13 -12 -12 -13 -14 -15 -17 -36 -60 -85 -111 -143 -175 -209 -245 -280 -312 -345 -376 -402 -408 -405 -401 -395 -388
4 3 2 2 1 2 1 1 2 1 2 1 -29 -26 -23 -24 -26 -28 -33 -40 -52 -66 -86 -112 -142 -172 -206 -246 -278 -246 -204 -161 -117 -73 -33 -18 -13 -11 -10 -10 -10 -10 -10 -11 -11 -12 -12 -12 -12 -12 -13 -18 -36 -58 -83 -110 -141 -174 -208 -244 -280 -314 -347 -378 -402 -409 -410 -407 -402 -395
7 6 5 2 1 99991 99991 1 1 2 2 -25 -23 -20 4 -19 -20 -22 -25 -31 -38 -48 -63 -83 -106 -132 -161 -190 -210 -195 -168 -137 -102 -66 -34 -17 -11 -10 -10 -11 -11 -11 -11 -11 -12 -11 -12 -12 -12 -12 -14 -19 -36 -57 -81 -108 -138 -171 -205 -241 -277 -312 -346 -377 -402 -411 -413 -411 -407 -401
6 6 7 5 2 2 1 99991 2 1 2 2 -14 -13 3 2 -12 -14 -16 -19 -22 -27 -34 -48 -65 -85 -105 -126 -142 -138 -127 -110 -86 -59 -33 -14 -10 -11 -12 -12 -11 -12 -11 -12 -11 -12 -13 -14 -14 -14 -14 -19 -35 -57 -80 -105 -135 -166 -200 -235 -272 -307 -342 -375 -403 -411 -413 -413 -410 -405
7 7 7 7 5 3 3 2 1 2 3 2 2 -3 2 2 -3 -6 -8 -9 -8 -8 -5 -15 -24 -37 -49 -60 -68 -80 -86 -83 -72 -54 -34 -17 -13 -14 -17 -15 -13 -12 -11 -11 -12 -13 -14 -15 -16 -16 -18 -24 -38 -56 -79 -103 -130 -159 -192 -226 -263 -299 -335 -367 -394 -406 -411 -412 -411 -407
6 6 7 7 6 5 3 2 2 2 2 3 3 2 2 3 2 -3 -4 -3 -1 -1 3 5 7 -1 -3 -8 -7 -37 -58 -67 -66 -56 -40 -22 -19 -17 -18 -16 -14 -12 -11 -11 -12 -13 -14 -17 -18 -18 -20 -27 -39 -55 -75 -97 -123 -150 -180 -214 -250 -286 -324 -359 -387 -401 -407 -409 -410 -407
6 7 7 7 7 7 5 3 3 2 2 3 3 4 3 3 -5 -6 -5 -3 -2 -4 3 8 12 11 10 7 -1 -27 -54 -71 -75 -69 -55 -41 -33 -27 -23 -18 -15 -13 -11 -11 -11 -12 -13 -15 -16 -18 -21 -27 -38 -52 -70 -90 -111 -136 -164 -197 -232 -270 -310 -350 -381 -395 -401 -405 -407 -407
8 8 8 7 7 7 7 6 4 4 2 3 3 4 3 -9 -14 -11 -7 -3 -1 -1 3 7 9 11 10 6 -5 -35 -66 -90 -95 -90 -77 -63 -50 -39 -29 -21 -16 -13 -11 -10 -10 -10 -11 -12 -14 -16 -19 -25 -35 -47 -62 -80 -98 -119 -144 -175 -210 -249 -292 -336 -375 -385 -392 -398 -403 -404
9 9 9 9 8 7 8 8 7 4 3 3 3 3 -4 -11 -15 -13 -8 -3 -1 2 4 6 7 8 6 -1 -18 -50 -86 -113 -122 -116 -103 -86 -69 -53 -38 -25 -18 -13 -10 -8 -8 -8 -8 -9 -11 -13 -16 -22 -30 -40 -53 -67 -82 -99 -119 -145 -179 -219 -264 -310 -347 -363 -376 -386 -394 -398
11 11 9 10 10 8 8 7 7 7 7 4 4 3 -4 -11 -15 -13 -8 -3 1 3 3 4 5 5 3 -6 -28 -68 -113 -147 -156 -148 -131 -111 -88 -65 -45 -28 -19 -13 -9 -7 -6 -5 -6 -7 -8 -10 -13 -17 -24 -32 -42 -52 -63 -75 -88 -108 -139 -182 -231 -280 -322 -343 -359 -372 -383 -390
13 13 12 11 11 10 8 7 8 7 7 7 4 4 -3 -10 -15 -12 -7 -2 3 3 3 2 2 3 1 -8 -31 -84 -143 -190 -195 -182 -160 -134 -106 -77 -50 -28 -18 -12 -8 -4 -3 -3 -4 -4 -5 -6 -8 -11 -17 -23 -30 -38 -44 -50 -55 -64 -93 -139 -193 -248 -297 -320 -338 -355 -370 -381
14 14 13 13 12 11 9 9 8 8 7 7 6 4 1 -4 -7 -7 -5 -2 2 1 -1 1 3 3 1 -9 -37 -99 -170 -227 -232 -212 -185 -155 -120 -86 -55 -29 -19 -12 -7 -3 -2 -1 -2 -2 -2 -3 -4 -6 -9 -14 -18 -22 -27 -29 -23 -18 -45 -95 -152 -207 -255 -287 -312 -333 -353 -369
16 15 14 14 13 12 11 10 9 7 8 8 8 7 6 3 1 -3 -6 -5 -2 -5 -5 -2 2 3 1 -8 -34 -106 -191 -264 -261 -232 -200 -169 -129 -92 -60 -35 -22 -15 -8 -2 -1 -1 -1 -1 -1 -1 -1 -1 -3 -6 -7 -9 -15 -18 -7 2 -8 -59 -116 -170 -215 -253 -283 -309 -333 -355
17 16 15 15 14 12 11 11 9 9 9 8 7 8 6 3 4 -2 -10 -16 -19 -18 -14 -8 -2 -1 -1 -12 -41 -106 -184 -249 -261 -230 -195 -162 -126 -91 -62 -39 -27 -19 -11 -5 -2 -1 -1 1 1 1 2 2 1 -1 -1 -2 -4 -4 3 8 -2 -42 -93 -142 -187 -224 -256 -285 -312 -337
18 17 17 16 15 14 12 12 11 10 10 10 8 7 7 6 7 -3 -16 -30 -39 -34 -26 -16 -7 -3 -3 -13 -37 -96 -163 -220 -225 -203 -174 -145 -114 -84 -59 -39 -30 -24 -15 -8 -4 -2 -1 1 2 2 3 3 3 3 3 3 3 4 7 10 2 -33 -77 -122 -164 -200 -231 -259 -286 -309
19 18 18 17 17 15 14 13 12 12 11 10 9 8 8 7 8 -5 -21 -39 -52 -46 -35 -24 -15 -9 -8 -16 -37 -81 -131 -170 -177 -164 -143 -119 -95 -73 -53 -38 -30 -24 -18 -12 -8 -5 -2 1 2 2 3 3 4 4 4 5 4 4 6 5 -4 -31 -67 -107 -144 -177 -207 -234 -258 -279
21 19 18 19 17 16 15 13 13 12 12 12 11 11 9 8 7 4 -22 -43 -61 -52 -40 -29 -20 -14 -11 -15 -29 -61 -97 -126 -132 -125 -109 -91 -75 -59 -45 -35 -29 -25 -21 -17 -13 -9 -5 -1 -1 2 3 3 4 4 4 4 3 1 1 -1 -8 -28 -60 -94 -127 -157 -184 -209 -231 -250
21 21 20 19 17 17 16 15 15 14 13 12 11 11 9 8 7 5 4 -31 -43 -42 -37 -31 -24 -17 -11 -11 -20 -41 -66 -85 -92 -87 -77 -64 -54 -45 -37 -31 -29 -27 -26 -23 -19 -15 -10 -6 -2 -1 2 3 4 3 2 1 -2 -4 -7 -10 -16 -27 -55 -84 -112 -138 -163 -185 -206 -223
23 21 20 19 19 17 17 16 16 16 14 12 12 11 10 9 8 5 4 4 -23 -28 -30 -30 -27 -18 -9 -3 -5 -20 -39 -53 -58 -55 -47 -38 -34 -32 -30 -28 -30 -32 -32 -31 -27 -22 -16 -11 -5 -1 2 4 3 2 -1 -4 -8 -12 -17 -21 -28 -38 -57 -78 -99 -121 -143 -164 -182 -198
24 23 21 20 20 19 18 17 17 16 15 14 13 12 11 10 8 6 4 4 4 -15 -24 -30 -30 -19 -6 6 12 -2 -17 -29 -33 -30 -22 -14 -18 -22 -25 -27 -33 -39 -41 -41 -37 -30 -22 -15 -8 -2 2 4 3 -1 -4 -8 -14 -20 -27 -34 -40 -49 -60 -73 -88 -106 -125 -144 -161 -175
24 24 22 21 21 20 19 18 17 16 16 14 14 12 11 11 9 7 5 4 3 -5 -20 -30 -33 -21 -3 10 16 8 -3 -12 -15 -13 -8 -4 -10 -18 -26 -33 -42 -50 -54 -54 -48 -39 -28 -18 -9 -2 2 4 2 -1 -6 -13 -20 -29 -38 -46 -54 -58 -63 -69 -78 -92 -109 -125 -140 -154
25 24 23 22 22 21 20 18 18 16 16 15 13 13 12 11 9 8 6 4 4 4 -19 -34 -40 -26 -3 9 18 11 3 -3 -5 -3 -1 1 -9 -21 -32 -42 -54 -65 -71 -71 -63 -50 -34 -19 -9 -2 2 5 2 -3 -9 -17 -26 -37 -48 -59 -67 -67 -65 -64 -67 -79 -93 -108 -122 -134
27 25 24 23 22 21 20 18 18 17 15 14 12 11 11 10 9 8 6 3 3 4 3 -39 -47 -37 -18 -3 7 5 1 -3 -5 -4 -3 -5 -16 -29 -43 -57 -72 -84 -91 -91 -81 -63 -41 -21 -9 -2 2 4 1 -4 -11 -20 -31 -44 -57 -70 -78 -73 -66 -60 -59 -67 -79 -92 -105 -116
28 26 25 23 22 22 19 18 17 16 16 15 13 11 11 9 8 6 6 4 2 4 3 -48 -60 -51 -35 -19 -6 -4 -6 -8 -8 -8 -9 -14 -25 -40 -57 -74 -92 -108 -117 -118 -105 -82 -53 -24 -13 -5 1 4 -1 -6 -13 -22 -34 -48 -64 -79 -87 -77 -64 -54 -49 -56 -67 -78 -89 -100
29 28 26 24 25 23 20 18 18 17 17 15 13 11 11 9 7 7 7 4 4 4 -34 -56 -69 -64 -51 -36 -23 -17 -15 -14 -13 -13 -16 -22 -35 -52 -72 -93 -116 -136 -150 -151 -136 -109 -77 -46 -26 -12 -4 -1 -3 -8 -14 -23 -34 -48 -64 -80 -80 -71 -58 -48 -43 -48 -57 -67 -77 -86
30 29 27 25 24 23 22 20 20 18 17 15 15 13 11 11 9 8 7 5 4 3 3 -66 -83 2 -65 -50 -38 -29 -24 -20 -17 -17 -20 -28 -42 -62 -86 -112 -140 -166 -187 -194 -174 -142 -105 -70 -43 -20 -11 -6 -6 -10 -15 -22 -32 -43 -55 -66 -67 -60 -50 -41 -36 -40 -47 -57 -66 -74
31 30 28 26 24 23 22 23 22 20 18 17 15 14 13 11 9 9 7 7 5 3 2 -76 -99 -91 -76 -61 -49 -39 -31 -24 -21 -19 -21 -29 -46 -68 -96 -128 -161 -195 -226 -241 -213 -173 -132 -93 -63 -38 -22 -12 -10 -12 -16 -21 -29 -37 -45 -51 -53 -47 -39 -31 -26 -31 -39 -48 -56 -63
32 30 29 27 25 24 25 24 22 22 20 18 16 14 12 12 10 7 7 9 5 3 3 -75 4 -91 -77 -63 -54 -44 -36 -29 -22 -18 -19 -28 -45 -70 -101 -137 -175 -215 -253 -268 -239 -196 -154 -116 -83 -55 -34 -20 -15 -15 -17 -20 -25 -30 -34 -36 -37 -35 -30 -25 -22 -26 -33 -40 -47 -53
32 32 30 29 27 27 26 25 24 23 20 19 17 15 13 11 9 8 7 7 6 5 3 3 3 -81 -67 -56 -51 -43 -38 -33 -22 -12 -12 -21 -39 -65 -98 -137 -175 -220 -268 -286 -249 -205 -165 -131 -95 -65 -42 -26 -19 -18 -18 -20 -23 -26 -27 -25 -24 -25 -24 -21 -19 -23 -28 -34 -39 -44
35 33 32 31 30 29 27 26 25 23 21 19 17 15 15 12 12 9 9 8 7 6 4 2 2 3 3 2 3 3 -37 -36 -21 -3 -3 -9 -28 -54 -85 -120 -158 -198 -234 -248 -226 -193 -158 -127 -96 -69 -47 -31 -23 -21 -20 -21 -23 -24 -24 -23 -23 -23 -23 -21 -21 -22 -25 -28 -31 -36
37 36 35 32 31 31 29 27 27 22 21 20 18 16 16 13 12 11 9 9 8 7 4 2 3 2 3 2 3 3 3 -42 -26 -8 1 3 -17 -42 -68 -97 -131 -165 -192 -205 -192 -168 -142 -115 -90 -67 -48 -33 -26 -23 -23 -23 -24 -24 -24 -24 -24 -24 -23 -23 -23 -23 -23 -23 -24 -28
38 36 35 34 33 31 29 29 26 25 24 23 19 18 16 14 13 11 11 9 8 7 6 4 3 3 3 2 2 3 3 -32 -24 -11 -1 1 -12 -32 -54 -78 -105 -131 -151 -160 -154 -139 -120 -100 -80 -62 -46 -35 -28 -24 -23 -24 -24 -25 -25 -25 -25 -24 -24 -24 -24 -23 -21 -20 -19 -22
39 38 37 35 33 33 31 28 27 27 24 23 21 18 17 15 13 11 11 9 9 6 6 4 3 3 3 2 3 3 3 3 -20 -10 -2 -1 -9 -24 -41 -60 -80 -99 -114 -121 -119 -110 -98 -84 -69 -55 -42 -33 -27 -24 -23 -23 -24 -24 -24 -25 -25 -25 -25 -25 -24 -22 -19 -17 -15 -17
40 39 37 35 34 33 30 29 27 25 23 21 21 20 18 17 14 12 11 11 10 7 6 6 3 3 2 2 3 5 4 4 -15 -8 -2 2 -7 -18 -30 -43 -58 -72 -82 -87 -88 -84 -77 -67 -57 -47 -37 -29 -25 -23 -22 -22 -23 -23 -24 -25 -25 -25 -25 -25 -24 -21 -18 -14 -11 -13
42 40 38 37 35 33 31 30 29 27 24 23 24 21 17 17 15 13 13 11 9 8 6 5 5 4 2 2 2 3 4 4 -5 -4 -4 -5 -9 -15 -22 -30 -40 -49 -55 -58 -61 -61 -57 -51 -45 -38 -31 -25 -22 -21 -20 -20 -21 -22 -23 -24 -25 -25 -25 -24 -23 -20 -17 -13 -11 -10
42 41 38 38 36 34 33 32 30 29 27 26 24 22 20 18 17 15 12 11 10 8 7 6 7 6 3 2 2 2 3 4 3 -1 -6 -11 -12 -13 -16 -19 -26 -31 -34 -34 -40 -42 -41 -38 -35 -32 -27 -21 -20 -19 -18 -18 -20 -21 -23 -24 -24 -24 -24 -23 -22 -20 -17 -13 -10 -9
44 42 40 38 38 35 35 33 31 30 27 26 24 22 21 21 19 16 13 11 10 8 7 6 5 7 6 3 2 2 2 3 3 -1 -6 -10 -10 -11 -11 -13 -16 -19 -21 -22 -27 -30 -31 -30 -30 -28 -26 -22 -20 -18 -18 -19 -20 -22 -23 -24 -24 -25 -24 -24 -22 -20 -17 -14 -11 -9
44 42 41 40 39 38 35 34 33 30 28 27 25 23 22 20 18 16 13 12 10 8 7 7 6 5 7 4 2 3 3 3 2 -1 -5 -8 -8 -8 -8 -8 -10 -12 -13 -14 -18 -22 -25 -26 -27 -27 -26 -25 -23 -21 -20 -20 -21 -22 -23 -24 -25 -25 -25 -24 -23 -21 -18 -15 -12 -10
45 44 43 42 41 40 38 34 33 30 29 28 26 24 21 20 18 15 14 13 10 9 8 8 6 5 6 6 3 2 2 3 3 -3 -5 -5 -6 -6 -5 -5 -6 -7 -8 -10 -14 -18 -21 -24 -26 -27 -28 -28 -26 -24 -23 -22 -23 -24 -24 -25 -26 -26 -26 -26 -25 -23 -20 -17 -15 -13
46 46 45 44 41 40 37 34 33 31 29 27 27 25 22 20 18 16 14 13 12 11 8 8 6 5 5 7 6 2 2 3 3 -1 -3 -3 -4 -4 -3 -3 -4 -5 -6 -8 -12 -16 -19 -23 -25 -28 -30 -31 -29 -26 -25 -24 -24 -25 -26 -27 -27 -28 -28 -28 -27 -25 -23 -20 -17 -16
48 47 46 43 42 39 37 36 36 32 32 30 30 24 23 21 19 17 16 15 13 12 11 9 7 5 5 6 7 4 3 3 3 -1 -3 -5 -5 -4 -3 -2 -2 -3 -5 -7 -11 -15 -19 -22 -25 -28 -30 -30 -29 -27 -25 -25 -25 -26 -27 -28 -29 -30 -31 -31 -30 -29 -27 -24 -20 -16
50 48 47 45 42 40 38 38 37 34 31 31 28 30 29 23 20 18 17 16 14 12 10 9 8 5 4 4 5 4 3 3 2 -1 -4 -7 -6 -4 -2 -1 -1 -2 -4 -7 -11 -15 -19 -22 -26 -28 -29 -29 -28 -26 -25 -25 -25 -27 -28 -30 -31 -33 -34 -34 -34 -33 -32 -29 -25 -21
51 49 46 45 43 41 39 38 36 38 33 32 31 35 28 23 22 19 16 15 14 12 11 10 8 7 6 5 3 6 6 4 3 3 -5 -10 -8 -4 -1 1 -1 -1 -4 -7 -11 -16 -20 -24 -27 -28 -29 -29 -28 -26 -25 -24 -26 -27 -30 -32 -34 -36 -37 -38 -39 -39 -37 -35 -31 -26
53 50 47 46 44 43 41 40 39 36 33 33 31 32 27 24 20 19 17 16 14 12 11 10 8 7 7 6 4 5 7 7 5 3 3 -8 -6 -2 2 4 2 -1 -4 -7 -12 -17 -22 -26 -29 -30 -29 -28 -27 -26 -25 -25 -26 -28 -31 -34 -37 -39 -41 -43 -44 -45 -44 -42 -37 -30
52 51 49 47 44 44 42 41 40 38 36 33 32 41 35 26 21 20 17 15 14 12 11 10 9 8 7 7 6 6 6 7 7 5 3 -6 -3 2 6 8 5 -1 -4 -8 -14 -20 -26 -30 -33 -32 -30 -29 -27 -26 -25 -25 -27 -30 -33 -36 -40 -43 -46 -48 -50 -51 -51 -49 -44 -34
54 52 50 48 47 45 44 41 40 36 36 33 34 43 39 27 21 18 17 16 14 13 12 10 9 8 8 7 8 7 7 6 7 7 4 2 3 5 9 11 5 -3 -6 -9 -15 -22 -29 -34 -37 -34 -31 -29 -28 -27 -26 -26 -28 -31 -35 -39 -43 -47 -50 -53 -55 -57 -58 -56 -50 -37
55 53 53 49 47 47 45 42 40 37 36 35 35 36 36 28 21 18 16 16 16 14 14 12 11 10 9 9 8 7 8 7 7 8 6 4 7 6 8 11 1 -7 -10 -12 -18 -24 -30 -34 -35 -33 -31 -29 -28 -27 -27 -27 -30 -31 -36 -43 -47 -51 -54 -57 -60 -62 -64 -61 -56 -42
56 55 53 50 49 47 45 43 41 39 38 35 34 35 35 35 27 21 18 18 17 15 15 14 13 12 10 10 9 8 7 8 7 7 7 5 4 1 -5 -9 -15 -18 -19 -20 -23 -26 -30 -32 -32 -31 -30 -29 -28 -28 -29 -29 -30 -30 -39 -47 -52 -55 -57 -58 -59 -60 -61 -59 -54 -43
57 56 54 52 50 48 46 44 42 40 37 36 36 35 36 40 41 32 23 19 19 18 16 15 14 13 12 11 10 8 8 7 8 7 6 7 4 3 -21 -33 -35 -33 -31 -29 -29 -30 -30 -30 -30 -29 -28 -28 -28 -29 -31 -33 -36 -40 -48 -54 -58 -59 -59 -58 -57 -57 -56 -54 -50 -41
59 56 55 52 51 49 47 45 42 41 39 37 37 37 35 38 53 51 34 25 21 19 19 16 15 15 13 12 11 9 8 8 9 8 6 7 6 2 -36 -57 -53 -47 -41 -37 -35 -33 -31 -29 -28 -27 -26 -27 -28 -30 -34 -37 -43 -50 -58 -63 -66 -63 -60 -57 -54 -52 -51 -49 -46 -39
60 57 56 54 52 51 49 46 43 43 41 38 38 36 35 36 50 53 45 30 22 22 20 18 17 16 15 13 11 10 9 8 8 8 7 7 6 3 2 -63 -60 -53 -48 -45 -42 -37 -32 -28 -25 -25 -24 -25 -28 -31 -36 -42 -49 -57 -67 -70 -70 -66 -60 -54 -50 -47 -45 -43 -40 -35
62 60 58 55 52 51 49 48 45 43 42 40 38 37 37 34 35 38 34 28 25 23 21 19 18 16 15 14 12 11 9 8 8 8 6 7 7 5 3 -62 -54 -48 -49 -51 -48 -41 -33 -26 -24 -23 -23 -24 -27 -32 -38 -45 -52 -61 -68 -72 -73 -67 -59 -51 -44 -40 -39 -37 -35 -32
62 60 59 57 54 52 51 48 46 44 42 41 39 37 35 34 32 31 30 27 25 23 22 20 19 18 16 14 13 12 10 9 8 7 6 6 8 6 4 3 -24 -28 -42 -53 -53 -46 -35 -26 -23 -22 -21 -22 -26 -32 -39 -46 -54 -62 -69 -72 -72 -65 -56 -46 -38 -34 -33 -32 -32 -31
64 63 60 58 55 52 50 48 48 45 43 42 39 38 36 34 32 31 29 27 25 25 23 22 20 18 17 16 15 14 12 10 8 6 5 5 6 4 4 4 9 -3 -36 -59 -61 -52 -40 -27 -25 -23 -20 -20 -25 -32 -40 -48 -57 -65 -71 -74 -72 -65 -54 -42 -31 -27 -27 -29 -29 -30
68 66 63 60 56 53 51 49 48 46 45 42 41 39 37 36 34 31 31 28 27 26 24 22 21 19 18 17 16 14 12 10 8 6 5 4 4 4 7 5 4 -8 -44 -71 -73 -63 -48 -35 -32 -26 -21 -20 -25 -33 -42 -51 -61 -70 -76 -79 -76 -68 -55 -41 -29 -24 -25 -26 -28 -30
71 69 69 66 59 55 53 51 50 49 46 44 42 39 38 37 35 33 32 30 29 27 25 24 23 21 20 19 17 15 14 12 8 7 5 5 6 4 6 8 6 4 -57 -89 -88 -74 -57 -40 -34 -28 -22 -20 -25 -34 -45 -56 -67 -78 -85 -88 -85 -75 -60 -42 -27 -23 -24 -26 -28 -29
75 73 74 71 61 56 55 53 50 48 46 44 43 42 41 39 37 36 34 32 31 29 28 26 24 22 21 19 18 16 14 13 10 9 7 7 6 5 4 7 7 6 -66 -96 -98 -85 -68 -52 -41 -31 -24 -21 -26 -36 -48 -62 -76 -88 -97 -102 -99 -88 -70 -49 -31 -26 -25 -27 -28 -30
75 72 70 67 61 58 56 54 52 50 48 47 47 45 43 41 39 37 35 34 32 31 29 28 26 25 23 21 18 16 14 13 10 9 8 8 6 6 5 6 7 7 5 -106 -107 -95 -79 -62 -48 -35 -25 -21 -26 -37 -52 -68 -86 -102 -114 -121 -120 -107 -86 -60 -38 -31 -29 -29 -30 -31
72 69 67 63 60 58 56 55 53 52 52 51 50 48 46 43 41 39 37 36 34 35 33 30 27 27 24 22 20 17 15 14 12 11 9 10 8 8 7 8 8 7 6 3 -111 -99 -86 -72 -56 -39 -24 -16 -22 -37 -55 -75 -97 -117 -136 -148 -150 -136 -110 -77 -46 -39 -37 -35 -33 -34
73 70 67 64 61 60 59 56 56 56 55 53 52 50 48 45 43 40 39 38 35 45 44 34 31 27 24 24 22 20 18 15 13 12 11 10 10 9 9 9 8 8 7 6 -90 -92 -91 -85 -66 -42 -21 -10 -18 -36 -58 -83 -108 -134 -160 -181 -190 -174 -142 -105 -73 -57 -50 -45 -42 -39
76 72 68 66 64 62 61 61 60 58 57 55 53 52 50 47 45 43 41 39 37 38 48 38 33 30 27 24 23 21 18 15 14 14 12 11 11 11 10 10 8 8 8 7 4 -78 -92 -98 -73 -43 -15 1 -11 -34 -60 -89 -118 -149 -181 -213 -236 -216 -176 -133 -97 -77 -65 -56 -50 -45
77 73 69 68 66 65 64 63 62 61 59 59 56 53 52 49 47 44 42 40 38 37 36 38 42 33 28 25 23 21 19 17 16 15 14 13 13 12 11 9 9 8 7 7 4 -59 -82 -93 -72 -40 -10 4 -9 -32 -61 -92 -122 -156 -193 -231 -258 -247 -200 -155 -120 -94 -77 -65 -57 -49
75 74 71 69 68 67 66 65 64 63 61 60 58 55 53 50 49 47 44 42 41 39 39 39 48 41 34 30 26 24 20 18 18 17 16 15 15 14 13 12 9 7 7 6 5 5 -68 -88 -64 -33 -3 10 -7 -32 -60 -90 -120 -153 -190 -230 -262 -241 -201 -162 -130 -103 -84 -71 -61 -51
76 75 73 72 71 69 68 68 66 65 64 62 60 57 54 52 50 48 46 44 43 42 42 39 40 51 50 42 34 28 23 20 19 19 18 17 16 15 14 12 9 7 6 4 5 7 5 -53 -43 -25 -8 -2 -13 -32 -56 -82 -109 -139 -172 -203 -223 -210 -182 -152 -125 -102 -84 -71 -60 -51
79 77 76 74 73 73 71 70 70 68 66 63 62 59 57 54 51 50 48 46 46 45 45 43 41 43 57 52 40 33 27 22 21 21 20 18 18 16 14 13 10 8 6 4 5 6 6 4 -20 -15 -10 -11 -18 -32 -49 -70 -93 -118 -145 -168 -181 -174 -156 -133 -112 -94 -78 -66 -56 -48
81 80 77 76 76 75 74 73 71 70 69 66 64 61 58 56 54 52 51 51 49 49 48 44 41 40 45 54 53 41 32 26 24 23 22 21 19 17 15 13 11 9 6 6 4 5 6 6 5 -5 -9 -15 -20 -29 -40 -55 -73 -94 -114 -132 -144 -138 -125 -110 -95 -81 -69 -59 -51 -44