ncols        40
nrows        40
xllcorner    -24.166666666673496
yllcorner    69.38749999999351
cellsize     0.004166666667
NODATA_value -32767
35 26 22 16 10 3 1 -35 -45 -54 -61 -69 -77 -84 -88 -92 -93 -94 -95 -94 -92 -88 -82 -75 -68 -59 -51 -42 -34 -25 -17 -12 -14 -20 -29 -38 -46 -54 -60 -65
95 77 67 55 43 23 16 8 4 -24 -34 -43 -53 -64 -74 -83 -90 -97 -103 -108 -111 -112 -110 -106 -100 -94 -88 -81 -74 -68 -64 -60 -59 -61 -64 -69 -75 -79 -83 -85
128 109 97 86 76 66 61 48 35 13 7 3 -20 -32 -45 -60 -72 -83 -92 -102 -109 -115 -118 -119 -117 -115 -111 -107 -103 -98 -93 -90 -88 -87 -88 -90 -92 -94 -95 -95
127 120 117 117 123 152 159 154 137 84 55 26 6 7 -8 -25 -40 -56 -68 -80 -92 -103 -112 -118 -122 -124 -125 -124 -121 -118 -114 -109 -106 -103 -101 -100 -101 -101 -102 -102
235 246 234 220 233 347 425 507 546 509 447 361 216 152 89 42 7 -20 -36 -52 -65 -80 -95 -108 -118 -125 -130 -133 -135 -134 -132 -129 -125 -121 -117 -114 -111 -110 -109 -109
393 464 439 386 341 341 381 457 542 625 604 542 398 325 240 163 57 25 7 3 -37 -53 -70 -87 -103 -116 -126 -133 -139 -143 -145 -145 -143 -140 -137 -133 -128 -124 -120 -118
506 650 645 605 543 457 442 459 512 588 577 541 450 410 357 294 164 106 53 25 2 -23 -42 -59 -78 -96 -111 -122 -132 -140 -147 -150 -152 -151 -150 -147 -143 -139 -133 -128
663 693 666 636 616 602 607 613 598 481 421 390 360 323 274 237 200 197 203 186 74 26 5 -33 -51 -69 -89 -105 -119 -129 -139 -147 -152 -154 -155 -154 -152 -149 -144 -138
644 595 550 523 507 508 515 526 530 510 506 509 469 419 358 320 313 337 354 338 199 108 38 3 -26 -43 -63 -83 -102 -116 -128 -137 -145 -151 -154 -155 -155 -153 -150 -146
604 517 479 460 445 428 426 425 416 417 438 477 514 510 502 504 531 546 532 485 338 240 136 25 6 1 -40 -59 -81 -100 -116 -127 -136 -144 -150 -153 -155 -155 -153 -151
611 524 500 476 438 377 361 348 332 327 337 361 407 434 462 494 532 551 567 557 458 371 265 88 31 6 -21 -43 -63 -84 -102 -117 -128 -137 -145 -151 -155 -156 -157 -157
714 766 764 736 675 552 497 433 368 280 252 234 222 217 214 217 227 234 246 257 259 257 237 143 80 24 6 -33 -53 -73 -91 -108 -123 -133 -142 -148 -153 -157 -158 -159
549 624 659 691 716 700 664 598 516 366 305 251 196 181 173 169 166 166 171 176 170 166 158 120 81 39 14 -23 -45 -64 -81 -97 -113 -126 -135 -141 -145 -149 -151 -152
372 440 487 533 590 661 679 679 649 538 467 376 248 207 180 159 137 131 132 134 137 136 132 105 76 35 10 -17 -35 -54 -70 -85 -97 -109 -118 -125 -129 -132 -135 -137
277 293 321 359 414 497 539 583 618 624 598 543 415 351 288 224 149 127 111 105 105 104 99 75 57 29 9 -12 -26 -43 -58 -71 -81 -90 -97 -104 -109 -113 -116 -119
309 199 175 176 193 244 275 312 345 406 442 480 517 522 515 477 372 314 243 182 101 75 55 34 26 19 11 2 -20 -33 -44 -56 -66 -73 -79 -85 -91 -96 -100 -103
207 144 124 118 129 165 186 211 230 260 274 294 335 360 381 386 351 322 290 249 165 123 81 33 21 13 8 2 -14 -24 -33 -41 -50 -58 -64 -69 -75 -80 -86 -90
151 113 98 90 90 111 125 138 142 132 129 140 165 183 197 207 202 192 183 169 146 131 108 48 26 11 6 2 -8 -16 -23 -30 -36 -43 -50 -56 -61 -66 -72 -77
53 40 35 32 29 29 31 30 27 17 17 21 33 37 42 45 45 44 45 45 42 42 42 41 38 31 21 4 -2 -8 -13 -19 -25 -31 -37 -44 -50 -55 -60 -66
30 11 8 7 5 5 7 6 4 2 3 4 8 9 11 14 17 18 21 25 31 34 38 45 45 42 32 14 2 -3 -7 -12 -18 -24 -30 -35 -42 -47 -53 -57
20 5 3 0 -1 -1 -1 -1 -1 -1 -1 -1 1 1 2 2 3 4 5 8 16 21 28 31 28 25 20 4 -1 -4 -7 -11 -17 -22 -27 -32 -37 -43 -48 -53
30 4 6 1 -1 -1 -1 -1 -1 -1 -1 -1 -1 -1 -1 -1 -1 -1 -1 -1 4 5 8 9 9 0 -2 -4 -6 -8 -11 -14 -18 -23 -28 -33 -37 -42 -47 -52
241 146 110 73 41 16 11 6 3 -1 -1 -1 -1 -1 -1 -1 -1 -1 -1 -1 -1 -1 -1 -2 -3 -4 -5 -7 -10 -13 -16 -19 -23 -27 -31 -35 -40 -44 -48 -53
261 199 166 130 96 76 74 63 43 14 7 2 -1 -1 -1 -1 -1 -1 -1 -1 -1 -2 -2 -3 -5 -7 -9 -12 -15 -18 -22 -25 -28 -32 -36 -40 -44 -48 -52 -56
233 180 160 142 131 150 165 178 174 113 75 36 6 8 1 -1 -1 -1 -1 -1 -1 -2 -3 -5 -7 -10 -13 -16 -19 -23 -26 -30 -33 -37 -41 -45 -48 -53 -57 -61
247 215 208 204 204 219 226 239 250 230 203 154 56 21 4 0 -1 -1 -1 -1 -2 -2 -4 -6 -8 -11 -15 -19 -22 -26 -30 -34 -38 -42 -45 -49 -53 -57 -61 -66
199 200 208 215 215 182 159 144 136 117 100 85 57 36 12 2 -1 -1 -1 -1 -2 -2 -4 -6 -9 -12 -16 -20 -24 -28 -32 -36 -41 -45 -49 -53 -57 -61 -65 -70
151 153 153 146 135 104 93 86 79 53 35 23 9 2 -1 -1 -1 -1 -1 -1 -2 -2 -4 -6 -10 -13 -17 -21 -25 -30 -34 -38 -42 -47 -52 -56 -60 -64 -69 -73
96 91 82 71 60 44 45 43 34 12 3 0 -1 -1 -1 -1 -1 -1 -1 -1 -2 -2 -4 -6 -9 -13 -17 -21 -25 -30 -35 -40 -44 -48 -53 -58 -63 -67 -71 -76
15 12 9 7 5 4 4 3 2 1 1 1 1 1 1 1 -1 -1 -1 -1 -1 -2 -3 -5 -8 -12 -16 -21 -25 -30 -34 -40 -45 -49 -54 -59 -64 -69 -73 -78
18 22 21 21 18 17 17 17 17 15 13 8 3 2 3 5 8 8 6 5 3 0 -2 -4 -7 -10 -15 -20 -25 -29 -34 -39 -44 -49 -54 -58 -63 -69 -74 -78
33 54 62 70 75 88 91 95 98 97 91 67 21 12 14 23 53 66 79 85 39 14 2 -1 -5 -8 -12 -17 -22 -27 -32 -36 -41 -46 -52 -57 -62 -67 -73 -79
15 42 59 80 104 143 155 168 175 179 172 151 79 54 44 52 95 125 165 192 145 84 28 1 1 -4 -7 -11 -16 -21 -27 -32 -37 -43 -49 -55 -61 -66 -72 -78
-1 0 2 1 13 12 17 32 69 166 204 247 282 262 218 167 122 127 149 188 245 221 152 54 13 0 -4 -7 -11 -15 -21 -28 -34 -40 -46 -52 -59 -65 -71 -76
-3 -2 -2 -1 -1 -1 0 3 21 48 60 83 123 135 129 117 98 102 111 124 126 105 80 28 6 -1 -3 -6 -10 -14 -19 -26 -33 -39 -45 -51 -58 -64 -71 -77
-5 -4 -3 -2 -2 -1 -1 -1 -1 0 1 3 7 27 24 27 21 20 19 21 22 6 0 -3 -3 -4 -6 -9 -13 -18 -24 -29 -35 -41 -47 -53 -59 -65 -72 -78
-10 -8 -6 -5 -4 -4 -3 -2 -2 -2 -2 -1 -1 -1 -2 -2 -3 -4 -5 -6 -8 -9 -9 -10 -11 -13 -15 -18 -22 -27 -32 -37 -41 -47 -52 -58 -63 -69 -74 -80
-16 -15 -13 -12 -11 -10 -9 -7 -6 -6 -5 -5 -5 -5 -6 -7 -9 -11 -14 -17 -19 -21 -23 -25 -26 -28 -30 -33 -36 -39 -43 -47 -51 -55 -60 -65 -70 -75 -80 -85
-23 -22 -21 -21 -20 -19 -18 -17 -16 -15 -15 -15 -15 -15 -16 -18 -21 -24 -27 -31 -34 -37 -39 -41 -43 -45 -47 -49 -51 -54 -57 -60 -63 -67 -70 -74 -78 -83 -87 -91
-31 -30 -30 -30 -29 -29 -28 -28 -28 -27 -27 -27 -28 -29 -31 -33 -36 -39 -42 -45 -49 -52 -55 -58 -60 -62 -64 -66 -68 -70 -72 -74 -77 -79 -82 -86 -89 -92 -96 -100