ncols        60
nrows        60
xllcorner    147.89583333332317
yllcorner    -42.6916666666765
cellsize     0.004166666667
NODATA_value -32767
183 186 182 216 176 89 59 50 44 42 40 38 35 28 20 20 22 15 13 10 9 12 28 25 25 49 43 8 2 -37 -41 -41 -41 -41 -41 -41 -41 -41 -41 -41 -41 -41 -41 -42 -43 -44 -44 -45 -45 -44 -43 -44 -46 -48 -49 -51 -52 -52 -53 -51
197 174 148 132 120 84 59 49 41 35 32 31 29 21 14 16 16 21 31 34 26 22 35 48 40 27 16 9 2 -39 -40 -40 -41 -41 -41 -41 -41 -41 -41 -41 -41 -41 -41 -44 -44 -43 -43 -45 -45 -45 -46 -46 -48 -48 -51 -51 -52 -52 -52 -52
239 222 218 207 182 114 62 44 37 32 29 26 21 20 20 26 29 35 51 64 56 42 39 53 45 29 29 15 -35 -42 -43 -41 -41 -41 -41 -41 -41 -41 -41 -41 -41 -41 -45 -45 -43 -43 -43 -45 -45 -45 -47 -48 -48 -48 -50 -51 -52 -52 -51 -53
274 246 221 204 155 88 50 36 30 29 28 24 24 32 39 48 55 68 79 89 91 67 49 55 50 52 56 -6 -23 -40 -40 -41 -41 -41 -41 -41 -41 -41 -41 -41 -45 -45 -45 -45 -43 -43 -44 -44 -43 -43 -43 -45 -48 -50 -50 -52 -52 -52 -53 -54
249 229 203 177 137 76 50 41 45 45 37 34 41 56 88 93 89 113 143 165 155 97 57 38 33 49 53 -22 -38 -39 -40 -41 -41 -41 -41 -41 -41 -41 -41 -45 -45 -45 -45 -39 -40 -42 -42 -38 -38 -40 -40 -43 -46 -50 -50 -51 -52 -51 -52 -56
226 212 192 155 110 68 52 56 55 43 43 47 53 63 82 94 88 111 162 230 213 135 76 44 28 19 14 -30 -37 -38 -40 -41 -41 -41 -41 -41 -41 -41 -41 -41 -45 -45 -45 -39 -40 -41 -43 -38 -38 -42 -38 -44 -47 -51 -53 -53 -51 -52 -56 -56
214 194 187 146 86 56 46 46 39 33 39 42 37 43 52 75 85 92 128 197 213 147 96 67 38 17 -35 -37 -38 -39 -39 -40 -40 -40 -40 -40 -40 -41 -41 -45 -41 -45 -45 -41 -41 -42 -42 -36 -35 -37 -43 -49 -51 -55 -57 -46 -50 -58 -58 -59
203 177 141 126 108 85 49 33 29 27 26 28 32 40 57 71 87 98 107 118 113 88 74 47 21 -21 -34 -37 -36 -38 -38 -38 -39 -39 -39 -39 -39 -39 -45 -45 -39 -45 -41 -41 -42 -42 -41 -38 -38 -41 -47 -50 -56 -56 -56 -47 -59 -60 -61 -61
151 148 113 88 89 95 99 64 29 23 23 25 33 37 43 49 73 82 73 72 68 63 41 15 8 -33 -34 -36 -36 -37 -37 -37 -39 -39 -39 -39 -39 -44 -44 -39 -44 -45 -42 -42 -43 -42 -41 -41 -40 -42 -50 -53 -55 -57 -40 -57 -59 -60 -61 -61
107 138 99 79 79 88 116 105 43 22 21 27 35 35 43 54 80 78 50 50 61 66 41 10 2 -32 -33 -33 -34 -36 -36 -37 -37 -39 -39 -42 -43 -43 -41 -43 -42 -43 -45 -46 -45 -41 -39 -45 -45 -49 -53 -56 -56 -43 -46 -59 -61 -61 -61 -63
130 139 77 67 68 88 103 110 70 27 19 23 29 26 34 56 69 66 52 42 51 63 34 9 -11 -29 -32 -33 -33 -24 -30 -35 -37 -38 -39 -42 -42 -41 -41 -42 -42 -43 -45 -45 -44 -40 -38 -39 -45 -51 -55 -56 -57 -45 -60 -59 -61 -61 -61 -62
78 67 36 41 53 55 79 84 53 23 18 20 22 22 25 38 53 59 63 47 30 20 9 4 -26 -28 -29 -31 -30 -19 -24 -32 -36 -39 -40 -39 -41 -41 -41 -42 -43 -43 -45 -45 -43 -36 -36 -38 -50 -53 -56 -57 -45 -59 -61 -59 -61 -61 -61 -63
31 29 24 21 25 26 26 26 31 47 39 27 24 24 27 39 55 68 82 81 63 36 14 4 -25 -26 -30 -30 -30 -30 -33 -33 -34 -34 -28 -41 -41 -43 -41 -42 -43 -45 -45 -45 -43 -43 -42 -47 -52 -54 -56 -41 -47 -58 -59 -59 -60 -61 -60 -62
21 19 20 18 13 11 9 24 61 91 91 64 34 32 47 66 65 66 84 98 77 33 5 4 -8 -24 -30 -29 -25 -33 -35 -36 -29 -39 -39 -40 -41 -40 -41 -42 -43 -43 -45 -45 -45 -45 -45 -49 -51 -53 -54 -41 -54 -57 -58 -58 -60 -61 -61 -63
17 13 14 14 12 7 5 20 57 94 120 91 44 44 62 87 94 79 78 84 87 46 18 19 2 -16 -29 -28 -32 -35 -35 -32 -37 -38 -39 -39 -41 -41 -33 -42 -43 -45 -44 -45 -46 -46 -46 -50 -52 -53 -43 -45 -57 -58 -59 -59 -61 -61 -62 -63
16 10 8 8 8 4 6 11 17 31 53 55 49 58 71 75 90 82 59 58 83 54 28 41 76 -8 -18 -24 -29 -31 -34 -34 -35 -35 -36 -38 -39 -39 -35 -43 -43 -45 -45 -46 -46 -48 -49 -51 -53 -55 -47 -58 -58 -59 -61 -61 -61 -63 -63 -63
16 9 6 3 4 9 21 25 22 26 36 50 68 79 88 79 76 81 79 41 20 16 24 51 90 131 -12 -24 -31 -32 -34 -30 -30 -33 -34 -33 -29 -40 -37 -42 -42 -43 -44 -45 -46 -48 -48 -52 -53 -48 -47 -59 -59 -59 -60 -61 -61 -62 -62 -63
12 7 4 -6 17 25 36 39 32 33 42 58 85 105 80 50 46 47 51 19 3 10 34 69 108 111 -19 -30 -28 -31 -30 -30 -29 -34 -34 -36 -39 -39 -39 -43 -43 -43 -45 -41 -46 -49 -50 -52 -49 -47 -56 -56 -58 -60 -62 -61 -63 -63 -63 -63
11 6 -3 -7 -6 22 36 57 65 65 79 98 111 112 80 70 42 20 20 11 6 22 64 92 48 -20 -31 -28 -32 -30 -30 -30 -32 -38 -37 -36 -40 -37 -38 -34 -29 -34 -41 -46 -49 -50 -54 -55 -56 -57 -58 -58 -61 -57 -61 -63 -63 -65 -65 -65
10 3 -2 -7 -8 17 27 46 68 86 95 114 127 138 112 61 33 20 7 -21 -15 26 64 80 -27 -22 -27 -31 -31 -32 -32 -34 -39 -40 -39 -38 -40 -40 -41 -43 -39 -36 -43 -44 -47 -48 -52 -54 -55 -56 -58 -58 -61 -61 -62 -62 -65 -65 -65 -65
21 5 -1 -6 -10 -10 15 25 36 36 51 73 87 104 93 60 45 7 -27 -25 -26 -7 17 20 -25 -28 -30 -39 -40 -34 -33 -33 -39 -40 -39 -42 -42 -40 -41 -40 -40 -38 -38 -44 -44 -46 -50 -54 -55 -56 -58 -59 -59 -59 -60 -61 -62 -63 -63 -63
37 43 40 26 -13 -12 -14 10 13 26 46 66 54 59 55 48 42 -13 -27 -16 -20 -25 -23 -25 -24 -28 -31 -32 -32 -35 -37 -39 -41 -40 -42 -44 -44 -39 -41 -39 -41 -39 -39 -38 -38 -39 -49 -54 -55 -55 -55 -56 -56 -56 -57 -58 -59 -59 -60 -60
50 63 69 55 -7 -15 -15 11 23 41 48 35 31 35 29 -1 -6 -15 -18 -24 -25 -28 -30 -29 -30 -30 -29 -27 -28 -37 -39 -41 -43 -43 -43 -43 -41 -38 -39 -38 -39 -39 -39 -38 -39 -42 -47 -53 -54 -53 -53 -54 -54 -55 -55 -56 -57 -58 -58 -59
53 57 66 50 25 -14 -11 6 12 20 22 21 32 47 -7 -8 -12 -21 -23 -27 -31 -30 -30 -29 -31 -32 -35 -33 -34 -39 -41 -43 -43 -43 -43 -43 -41 -37 -38 -36 -36 -38 -40 -41 -39 -41 -46 -48 -49 -49 -49 -50 -50 -51 -52 -52 -54 -55 -55 -56
36 26 27 24 -6 -15 -16 -17 25 36 22 15 34 57 49 -6 -18 -24 -27 -29 -25 -28 -29 -30 -35 -36 -38 -36 -35 -38 -40 -40 -40 -41 -42 -40 -38 -36 -38 -38 -39 -39 -38 -41 -40 -40 -41 -42 -43 -44 -44 -45 -46 -47 -48 -49 -50 -51 -52 -54
10 9 8 11 11 -9 -13 -14 16 27 14 11 33 42 -20 -11 -25 -26 -25 -26 -28 -32 -31 -32 -34 -34 -34 -34 -35 -40 -40 -39 -39 -39 -39 -38 -38 -35 -30 -29 -32 -36 -36 -35 -35 -35 -36 -39 -40 -41 -42 -43 -44 -45 -46 -47 -48 -50 -51 -52
-3 -2 -2 -2 -4 -7 -16 -17 -17 -17 -18 8 19 28 -20 -17 -19 -23 -24 -25 -27 -29 -29 -30 -34 -34 -34 -34 -34 -38 -38 -38 -38 -38 -38 -38 -37 -34 -33 -33 -31 -32 -32 -32 -32 -32 -33 -41 -35 -35 -37 -38 -39 -40 -42 -43 -45 -47 -47 -49
-6 -4 -4 -5 -2 -1 -17 -2 -18 -17 -18 -18 -21 -20 -20 -19 -21 -27 -25 -26 -26 -27 -29 -30 -32 -32 -33 -34 -35 -35 -35 -35 -35 -35 -35 -35 -35 -33 -32 -34 -34 -34 -28 -36 -37 -25 -26 -28 -28 -30 -31 -32 -34 -36 -38 -39 -41 -43 -44 -46
-4 -3 -3 -3 -1 -1 -2 -3 -4 -21 -21 -21 -22 -24 -21 -21 -21 -21 -24 -25 -25 -26 -27 -30 -30 -30 -32 -34 -35 -36 -36 -36 -34 -34 -34 -36 -34 -32 -32 -34 -18 -22 -32 -36 -37 -37 -37 -24 -44 -24 -26 -27 -29 -31 -32 -35 -37 -38 -43 -45
-1 -1 -1 -1 -1 -2 -3 -4 -5 -20 -22 -23 -24 -25 -21 -21 -21 -22 -24 -25 -25 -27 -27 -31 -30 -31 -33 -34 -35 -36 -36 -36 -34 -34 -34 -35 -31 -30 -31 -16 -13 -13 5 -9 -38 -40 -40 -41 -42 -21 -23 -24 -26 -29 -30 -32 -35 -36 -39 -42
13 24 5 -1 -1 -2 -4 -5 -7 -8 -21 -14 -25 -25 -21 -23 -24 -25 -25 -25 -26 -27 -28 -29 -30 -31 -33 -34 -34 -36 -37 -36 -37 -32 -31 -33 -30 -31 -16 -13 -13 -9 -4 -1 -6 -9 -10 -42 -43 -16 -18 -19 -21 -24 -25 -28 -31 -32 -36 -39
23 33 43 9 2 -2 -4 -5 -7 -9 -11 -14 -18 -20 -23 -24 -25 -24 -25 -25 -25 -27 -27 -28 -29 -29 -30 -31 -32 -36 -37 -38 -36 -33 -33 -32 -31 -16 -11 -8 -13 19 33 -1 -2 -7 -8 -10 -12 -46 -46 -47 -47 -18 -20 -23 -27 -28 -32 -36
49 50 35 18 9 -2 -4 -5 -7 -9 -12 -15 -17 -21 -23 -25 -25 -24 -24 -24 -25 -26 -26 -27 -28 -28 -29 -30 -32 -35 -35 -35 -34 -33 -32 -32 -32 -14 -9 -6 -13 34 61 56 40 -1 -4 -6 -7 -8 -9 -48 -48 -15 -17 -20 -24 -26 -31 -35
66 62 38 19 16 5 -3 -4 -7 -10 -11 -15 -16 -20 -23 -27 -28 -27 -27 -26 -24 -25 -25 -25 -26 -26 -27 -27 -28 -31 -34 -35 -35 -34 -34 -18 -15 -9 -11 -12 18 31 41 43 74 6 3 14 25 23 -1 -1 -14 -46 -46 -45 -46 -25 -27 -32
72 50 44 52 45 13 -3 -4 -6 -9 -11 -14 -16 -20 -22 -25 -26 -27 -29 -28 -25 -24 -24 -24 -25 -25 -26 -26 -26 -27 -30 -32 -35 -35 -20 -13 -10 -11 22 39 46 76 92 67 74 109 39 56 76 86 69 -1 -1 -76 -122 -45 -46 -1081 -24 -30
94 70 69 90 59 25 13 1 -5 -8 -9 -13 -15 -18 -22 -21 -22 -23 -26 -28 -27 -23 -25 -24 -25 -25 -25 -26 -26 -26 -26 -28 -31 -22 -17 -11 -8 -8 11 29 75 103 119 121 110 104 124 176 229 282 372 442 464 286 -144 -47 -47 -19 -143 -984
133 77 98 110 62 52 73 18 10 1 -7 -11 -15 -17 -19 -19 -21 -23 -23 -23 -27 -34 -35 -23 -23 -23 -23 -24 -23 -22 -25 -27 -17 -16 -12 -7 -8 -7 32 42 72 123 148 164 165 155 153 149 193 287 395 499 566 402 212 -210 -49 -49 -70 -974
136 112 133 104 79 101 100 72 36 18 8 -10 -14 -17 -18 -19 -21 -22 -22 -22 -24 -30 -35 -24 -21 -21 -22 -21 -21 -20 -25 -15 -13 -11 -8 -17 -5 51 75 83 79 106 105 124 153 186 208 217 229 278 382 497 557 424 304 179 -14 -51 -47 -47
156 139 136 107 116 137 107 59 24 34 22 8 -10 -12 -15 -16 -18 -22 -20 -20 -22 -24 -25 -22 -20 -19 -18 -17 -17 -16 -15 -13 -11 -9 -22 -3 -1 44 81 111 111 85 101 114 112 133 192 235 288 369 434 500 500 399 341 216 5 -13 -44 -44
160 148 127 128 152 156 125 85 63 64 63 14 1 -7 -10 -13 -14 -15 -16 -17 -18 -18 -18 -18 -17 -16 -15 -14 -13 -12 -11 -9 -23 -24 -4 -1 10 47 79 113 139 121 140 171 170 143 159 243 337 429 516 588 583 466 368 295 86 4 -18 -44
140 185 199 195 164 140 121 97 68 70 62 39 4 -5 -8 -11 -10 -12 -12 -15 -16 -16 -16 -16 -15 -14 -13 -12 -10 -9 -8 -24 -27 -4 -1 5 29 45 62 83 109 112 145 181 211 229 226 251 361 491 605 647 554 472 416 330 215 109 -39 -40
123 120 162 215 198 174 124 76 41 29 21 16 4 -3 -6 -8 -9 -10 -11 -18 -12 -13 -13 -12 -12 -11 -11 -10 -9 -8 -7 -25 -3 -1 3 43 58 69 64 77 135 140 142 163 180 215 279 347 417 491 583 626 537 470 392 263 172 83 -12 -37
151 93 100 157 199 174 134 91 51 22 23 10 -2 -3 -4 -6 -7 -8 -8 -9 -9 -10 -10 -10 -9 -9 -8 -8 -6 -20 -21 -22 -1 -1 20 29 36 53 75 89 128 153 121 121 139 170 225 338 460 539 616 655 575 492 418 297 219 116 -33 -34
178 95 91 170 188 154 154 105 43 17 11 1 -2 -2 -4 -5 -6 -7 -8 -7 -7 -8 -9 -8 -8 -7 -6 -5 -15 -17 -2 -2 24 32 28 32 59 90 88 89 93 99 102 114 131 162 227 331 434 528 586 608 589 490 428 389 313 139 -1 -33
139 75 76 111 99 116 108 99 44 15 4 -1 -1 -2 -3 -4 -4 -5 -6 -6 -6 -9 -6 -6 -6 -6 -5 -9 -9 -2 -1 -1 27 36 43 59 96 125 139 146 123 97 96 101 113 137 182 234 297 388 432 467 510 508 459 417 366 243 5 -34
69 43 37 43 40 50 39 27 9 12 -1 -2 -1 -1 -2 -3 -3 -4 -4 -4 -5 -5 -5 -5 -5 -4 -8 -10 -2 -1 -1 6 10 15 26 40 65 87 107 120 101 71 81 99 112 126 144 165 238 330 372 396 411 441 478 456 366 269 179 -33
32 25 18 16 14 11 8 4 2 4 -3 -4 -3 -1 -1 -2 -2 -3 -3 -4 -4 -3 -14 -3 -3 -11 -11 -2 -2 -1 -1 -1 3 10 22 32 44 68 89 64 52 54 66 78 80 89 122 166 216 254 295 311 331 370 386 387 330 266 221 -30
21 19 16 16 9 3 1 1 99991 2 -4 -5 -3 -2 -1 -1 -1 -2 -2 -3 -3 -3 -15 -3 -3 -12 -2 -1 -1 -1 -1 -1 3 7 14 24 39 55 45 28 32 41 53 63 76 93 118 139 154 179 198 187 247 298 297 264 258 260 239 186
25 23 22 16 10 5 3 2 1 1 4 8 -4 -3 -2 -1 -1 -1 -2 -2 -2 -2 -2 -2 -14 -14 -1 -1 -1 -1 -1 -1 3 6 8 16 25 20 16 21 30 38 48 64 76 88 104 114 135 141 129 131 177 205 204 178 181 197 216 209
22 20 20 16 11 6 4 3 2 1 2 5 8 9 -3 -2 -2 -1 -1 -1 -2 -1 -1 -15 -15 -1 -1 -1 -1 -1 -1 1 2 3 8 14 13 10 15 19 23 28 39 51 64 73 87 107 113 103 102 128 149 159 153 136 127 137 181 229
27 50 57 37 14 8 9 9 7 4 4 1 4 5 4 -3 -3 -3 -1 -1 -17 -1 -1 -15 -17 -1 -1 -2 -1 -1 2 3 2 1 5 9 10 9 10 13 17 17 21 32 47 62 75 80 79 77 99 123 124 131 118 108 108 149 211 227
40 86 90 50 26 31 38 28 15 9 5 3 3 99991 3 -3 -3 -5 -6 -9 -15 -1 -1 -1 -20 -11 -7 -4 -1 -1 4 4 4 5 7 7 7 7 8 8 8 9 16 28 36 44 51 51 54 75 85 84 87 100 96 82 116 189 273 220
51 99 101 81 54 56 47 32 21 13 12 10 6 7 -1 -1 -3 -6 -9 -13 -15 -1 -1 -1 -16 -15 -11 -7 -2 15 15 14 18 14 13 -8 -9 -10 -10 8 8 7 14 19 15 16 20 21 25 31 33 36 43 58 60 62 61 86 169 164
82 142 149 112 79 73 78 79 51 30 27 35 45 39 16 3 -1 -6 -10 -12 -13 -1 -1 -1 -17 -16 -12 -6 7 10 9 11 13 10 10 -12 -13 -12 -12 -12 9 7 5 6 6 4 5 6 7 99994 999916 999919 99999 24 31 27 24 35 63 78
110 169 183 141 99 87 120 132 90 58 52 72 82 49 21 11 2 -6 -10 -12 -14 -1 -1 -1 -16 -14 -10 -5 -2 -1 -1 7 7 -6 -10 -15 -14 -13 -13 -13 -13 7 5 5 99993 99994 99994 99994 99995 99997 999930 999934 999921 14 13 99991 7 13 13 22
145 192 198 143 111 123 189 165 125 127 105 121 128 87 45 21 4 -6 -12 -12 -14 -15 -1 -1 -1 -1 -3 -2 -1 -1 -1 -4 -4 -6 -9 -11 -11 -11 -11 -12 -13 6 5 99997 999910 999914 999915 999915 999918 999921 999928 999928 999923 999910 99993 99996 999911 999912 999911 999910
154 198 230 204 175 169 253 243 211 231 186 173 154 94 43 14 3 -9 -13 -13 -13 -14 -1 -1 -1 -1 -1 -1 -2 -2 -3 -3 -3 -3 -5 -6 -6 -5 -6 -8 -9 6 99997 99993 999910 999916 999919 999920 999923 999926 999932 999931 999926 999912 999912 999914 999918 999920 999919 999920
113 159 234 289 255 197 220 289 340 320 244 188 151 83 30 13 -3 -14 -14 -13 -12 -13 -2 -2 -2 -9 -1 -1 -1 -1 -3 -2 -1 -1 1 1 5 6 4 -1 1 8 99991 99992 99997 999914 999918 999926 999930 999932 999936 999937 999935 999932 999932 999933 999936 999938 999939 999942
133 174 253 357 341 281 249 251 277 218 149 94 79 44 16 2 -5 -14 -14 -13 -12 -13 -3 -3 -3 -9 -2 -1 -1 -1 -1 -1 1 8 13 43 38 24 23 19 13 13 11 5 99991 99996 999914 999924 999929 999931 999938 999943 999945 999948 999950 999950 999954 999956 999958 999961
121 173 247 340 316 248 187 164 164 158 107 50 27 24 2 -1 -1 -15 -14 -14 -13 -4 -4 -4 -3 -9 -3 -2 -2 -1 -1 -1 9 20 30 50 55 64 66 53 36 31 32 31 46 1 99995 999918 999926 999930 999937 999945 999949 999953 999956 999957 999962 999962 999965 999969