ncols        50
nrows        50
xllcorner    152.9749999999918
yllcorner    -27.345833333341496
cellsize     0.004166666667
NODATA_value -32767
20 19 21 17 14 12 10 10 10 11 10 7 4 3 -1 4 6 4 -1 -1 -1 -2 -2 -3 -3 -4 -4 -5 -5 -5 -5 -6 -6 -7 -7 -7 -7 -6 -3 -4 -5 -4 -4 -4 -4 -4 -5 -2 -2 -2
18 13 12 11 11 10 7 5 4 4 8 6 3 4 -1 5 5 5 -1 -1 -2 -2 -3 -3 -4 -4 -4 -5 -5 -5 -5 -5 -6 -6 -7 -7 -7 -7 -5 -4 -4 -4 -4 -3 -4 -4 -4 -2 -3 -3
14 12 11 9 6 5 5 5 4 4 5 6 5 3 -1 6 6 -1 -1 -1 -2 -3 -3 -4 -4 -5 -5 -5 -5 -5 -5 -5 -6 -6 -7 -7 -7 -7 -7 -7 -5 -5 -3 -4 -3 -4 -3 -5 -5 -5
14 12 11 10 10 9 8 10 8 5 4 4 4 3 -1 -1 -1 -1 -1 -2 -3 -3 -4 -4 -4 -5 -5 -5 -5 -5 -5 -6 -6 -7 -6 -6 -7 -7 -7 -7 -7 -7 -5 -5 -5 -5 -6 -6 -6 -7
12 10 10 12 12 9 8 10 9 6 4 3 3 3 3 3 3 -3 -1 -2 -3 -4 -4 -4 -4 -5 -5 -5 -5 -5 -5 -6 -6 -6 -6 -6 -7 -7 -7 -7 -7 -7 -6 -6 -6 -6 -7 -7 -6 -7
16 11 12 14 14 14 9 8 8 6 4 5 2 2 3 -1 -1 -2 -1 -2 -3 -4 -4 -4 -5 -5 -5 -5 -5 -5 -5 -6 -6 -6 -6 -6 -7 -7 -7 -7 -7 -7 -7 -7 -8 -9 -9 -8 -8 -8
15 14 17 18 18 14 9 9 7 6 6 6 2 2 4 -1 -1 -1 -1 -2 -2 -3 -4 -4 -5 -4 -4 -5 -5 -5 -5 -6 -6 -6 -6 -6 -7 -7 -7 -7 -7 -7 -8 -8 -8 -9 -9 -10 -10 -10
21 19 16 16 14 12 11 8 7 6 7 6 2 3 1 -1 -1 -1 -1 -2 -2 -3 -3 -4 -4 -4 -4 -4 -5 -5 -5 -6 -6 -6 -6 -7 -7 -7 -7 -7 -7 -7 -7 -8 -8 -9 -9 -10 -10 -10
22 19 23 22 17 15 11 8 9 9 7 5 4 3 1 -1 -1 -1 -1 -2 -2 -3 -3 -4 -4 -4 -4 -4 -5 -5 -5 -6 -6 -6 -6 -6 -7 -7 -7 -7 -7 -7 -7 -8 -8 -9 -9 -10 -10 -11
22 21 32 27 20 15 11 9 10 9 9 12 9 3 2 -1 -1 -1 -2 -2 -3 -3 -4 -4 -4 -4 -4 -4 -5 -5 -5 -5 -6 -6 -6 -6 -7 -7 -7 -7 -7 -7 -7 -7 -8 -9 -9 -10 -10 -11
30 28 34 29 20 14 13 14 10 9 9 14 13 5 3 1 -1 -1 -2 -2 -3 -4 -4 -4 -4 -4 -4 -4 -4 -3 -4 -4 -4 -5 -5 -6 -6 -6 -7 -7 -7 -7 -7 -8 -8 -9 -9 -10 -10 -10
35 36 38 38 28 22 23 23 13 14 11 13 12 8 4 3 1 -1 -2 -2 -3 -4 -4 -4 -4 -3 -3 -3 -3 -3 -3 -3 -3 -3 -3 -3 -5 -6 -7 -7 -7 -7 -8 -8 -8 -9 -9 -5 -5 -10
29 32 29 33 31 33 33 28 22 19 16 16 11 9 6 4 2 1 -2 -2 -3 -3 -3 -3 -3 -3 -3 -3 -2 -3 -3 -4 -3 -1 -2 -2 -4 -6 -7 -7 -7 -7 -7 -8 -8 -9 -9 -5 -6 -6
34 30 28 30 26 24 26 23 24 26 21 19 12 7 6 6 4 6 1 -1 -3 -3 -3 -3 -3 -2 -2 -2 -2 -3 -3 -2 5 8 -1 -1 -4 -6 -7 -8 -8 -8 -8 -8 -8 -9 -9 -6 -6 -6
30 28 32 31 27 27 23 26 19 19 19 22 13 9 8 7 5 4 4 3 4 4 -1 -1 -1 -2 -2 -2 -2 -2 -1 7 12 10 -1 -2 -4 -6 -7 -7 -8 -8 -8 -8 -8 -9 -9 -6 -6 -7
36 37 39 33 36 30 29 28 23 15 15 17 16 13 11 9 6 5 3 3 3 2 3 3 4 3 -1 -1 -1 3 4 8 16 10 -2 -2 -4 -6 -7 -8 -8 -8 -8 -8 -8 -9 -9 -7 -7 -7
45 44 40 35 32 29 24 20 20 20 15 11 10 9 13 13 10 7 4 3 3 2 2 3 2 3 2 2 2 3 4 7 15 12 -5 -2 -5 -6 -7 -8 -8 -8 -8 -8 -9 -9 -9 -7 -8 -8
45 42 35 30 29 27 21 23 23 23 17 13 13 11 14 13 12 12 11 12 9 3 2 3 3 3 3 2 2 3 3 6 15 14 -3 -3 -5 -5 -6 -6 -6 -6 -5 -6 -7 -7 -7 -8 -7 -9
52 40 32 27 24 21 24 26 24 18 15 20 18 12 12 8 6 10 10 9 10 6 6 5 4 4 3 2 2 3 3 6 16 14 8 -1 -4 -5 -6 -6 -6 -6 -6 -6 -7 -7 -7 -7 -7 -8
41 33 35 33 29 29 37 31 22 19 21 19 12 9 11 9 7 8 5 7 7 8 7 7 9 10 10 5 3 4 5 8 11 9 -1 -1 -4 -5 -6 -6 -6 -6 -6 -6 -6 -7 -7 -7 -7 -8
34 39 40 31 30 32 36 27 24 23 21 19 18 14 7 6 5 5 5 6 6 9 13 7 7 9 11 7 4 7 10 14 12 10 -2 -2 -5 -5 -6 -6 -6 -6 -7 -7 -7 -7 -7 -7 -8 -8
40 42 39 40 33 40 34 28 27 28 30 23 21 13 9 8 5 4 5 5 7 8 6 4 5 5 9 9 7 14 19 20 11 9 -5 -2 -5 -5 -6 -6 -7 -7 -7 -7 -7 -7 -8 -8 -8 -8
46 49 46 41 42 42 36 31 25 27 29 22 16 10 5 5 3 5 4 5 3 3 2 2 3 5 14 20 15 19 20 15 11 14 9 -2 -5 -5 -5 -6 -7 -7 -7 -7 -8 -8 -8 -8 -8 -8
50 40 42 36 38 34 37 32 33 24 20 17 16 13 8 10 8 8 4 4 2 5 5 3 2 5 15 20 20 22 18 17 13 10 -5 -1 -5 -5 -6 -6 -7 -7 -7 -8 -7 -8 -7 -7 -8 -8
47 33 30 28 27 22 24 26 28 29 28 26 27 22 21 19 9 5 5 3 1 5 6 4 4 9 18 23 14 15 22 19 10 -1 -4 -4 -5 -5 -6 -6 -7 -7 -7 -8 -7 -8 -8 -8 -8 -8
44 39 32 26 30 30 25 21 19 20 26 27 28 25 25 18 6 4 3 1 2 99991 5 10 8 12 19 23 15 16 25 15 10 -1 -1 -3 -6 -6 -6 -7 -7 -7 -7 -8 -8 -8 -8 -8 -10 -10
41 35 30 31 35 31 26 22 18 13 13 15 23 22 20 11 6 3 3 1 1 4 4 6 7 8 15 15 11 13 22 21 12 -1 -1 -3 -5 -6 -6 -7 -7 -8 -8 -8 -8 -8 -10 -10 -11 -11
36 41 36 32 29 26 22 18 18 18 18 15 12 16 22 12 5 4 4 4 2 3 1 6 11 10 9 8 6 11 15 18 14 -1 -2 -4 -5 -5 -6 -7 -7 -8 -8 -8 -8 -8 -10 -10 -11 -11
25 36 38 32 28 27 24 22 22 23 28 22 12 9 10 8 5 4 5 5 5 -1 -1 5 8 7 5 4 4 7 9 13 13 -2 -2 -4 -5 -5 -6 -7 -8 -8 -8 -8 -8 -8 -10 -10 -11 -11
23 27 36 33 34 33 29 29 26 23 29 23 21 16 12 13 7 4 3 4 5 -1 -1 -2 5 6 -1 -1 -1 -1 -1 8 -1 -1 -2 -5 -6 -5 -6 -7 -7 -7 -8 -8 -8 -8 -10 -10 -11 -10
25 23 17 15 13 16 26 36 29 24 20 10 15 19 19 13 6 5 4 4 4 4 -3 -3 -3 -2 -1 -2 -1 -1 -3 -1 -2 -3 -3 -5 -6 -4 -6 -7 -7 -7 -7 -8 -8 -8 -10 -10 -11 -11
21 14 11 8 6 6 12 34 28 24 14 5 7 6 5 4 4 2 3 3 3 3 3 -2 -1 -1 -1 -2 -2 -2 -2 -1 -1 -3 -3 -5 -6 -5 -6 -7 -7 -8 -8 -8 -8 -8 -10 -10 -11 -11
10 9 8 4 3 3 7 23 26 16 9 7 5 6 4 4 5 3 3 3 5 4 4 -1 -1 -1 -2 -2 -2 -3 -3 -2 -2 -3 -4 -5 -6 -5 -6 -6 -7 -7 -8 -8 -8 -8 -10 -10 -11 -11
23 11 3 2 4 3 3 5 11 15 11 6 8 12 4 5 4 4 99992 99992 4 5 -2 -1 -1 -2 -2 -3 -3 -3 -3 -3 -4 -4 -5 -6 -7 -5 -6 -7 -7 -7 -7 -7 -8 -8 -8 -10 -10 -9
27 17 11 7 6 4 3 3 6 12 11 12 8 9 99991 4 3 99991 4 5 4 -1 -1 -1 -1 -2 -3 -3 -4 -4 -4 -4 -5 -5 -5 -6 -7 -5 -6 -7 -7 -7 -7 -7 -8 -8 -8 -8 -9 -9
25 21 16 12 7 5 4 4 5 9 10 9 5 99991 99992 99992 99992 4 5 4 4 4 -1 -1 -1 -1 -4 -4 -4 -4 -4 -4 -5 -6 -6 -7 -8 -5 -6 -6 -6 -7 -7 -7 -7 -7 -8 -8 -8 -8
26 20 13 12 11 6 4 5 3 4 7 9 3 6 6 2 3 6 9 11 7 5 -1 -1 -1 -3 -3 -4 -4 -4 -4 -5 -6 -7 -7 -7 -7 -6 -6 -7 -7 -7 -7 -7 -7 -7 -8 -8 -8 -8
28 19 14 14 15 11 6 4 2 2 4 6 4 7 99992 5 6 7 15 13 6 4 -1 -1 -2 -3 -3 -4 -4 -4 -4 -6 -6 -7 -7 -7 -7 -6 -6 -6 -7 -7 -7 -7 -7 -7 -8 -8 -8 -8
23 21 20 17 16 9 7 4 2 3 4 5 5 99992 99992 5 6 12 11 6 5 5 -1 -1 -2 -3 -3 -4 -4 -4 -4 -6 -6 -7 -7 -7 -7 -6 -6 -6 -6 -7 -7 -7 -7 -7 -7 -8 -8 -9
29 26 20 12 10 6 3 4 4 6 5 3 3 7 6 5 6 9 9 8 5 5 -1 -1 -2 -3 -3 -4 -4 -4 -4 -5 -6 -7 -7 -6 -7 -5 -6 -6 -6 -6 -6 -7 -7 -7 -7 -7 -7 -8
19 17 14 11 10 5 3 5 8 8 7 5 5 5 6 5 12 17 13 8 10 7 1 -1 -2 -2 -3 -4 -4 -4 -4 -5 -6 -6 -6 -6 -6 -5 -5 -5 -5 -6 -6 -6 -6 -6 -7 -7 -7 -7
27 19 15 11 8 5 7 10 10 8 9 8 8 9 8 7 14 14 10 12 15 9 5 -1 -1 -2 -3 -3 -4 -4 -4 -5 -6 -6 -6 -6 -6 -4 -5 -5 -5 -5 -5 -6 -6 -7 -7 -7 -8 -7
22 17 14 11 9 6 7 16 12 9 8 16 14 18 21 15 8 9 13 15 19 10 6 -1 -1 -2 -3 -4 -4 -4 -4 -5 -5 -6 -6 -6 -6 -6 -5 -5 -5 -5 -5 -5 -5 -5 -6 -6 -6 -6
17 14 12 12 11 8 6 15 15 12 8 16 27 39 37 22 11 11 11 8 9 9 7 7 -1 -2 -2 -3 -4 -4 -4 -4 -5 -5 -5 -5 -6 -6 -4 -4 -5 -4 -5 -4 -3 -3 -4 -5 -5 -6
14 13 13 12 11 9 5 6 18 12 10 15 29 38 41 27 16 12 7 6 7 6 6 7 7 11 15 -2 -3 -4 -4 -4 -5 -5 -5 -5 -5 -5 -4 -4 -4 -4 -4 -3 -2 -2 -2 -3 -4 -4
14 13 13 10 6 5 5 8 17 13 14 19 18 18 31 28 15 11 9 7 6 5 5 5 5 6 10 9 -2 -4 -4 -4 -4 -5 -5 -5 -4 -5 -5 -5 -4 -4 -3 -3 -2 -2 -2 -3 -4 -4
11 10 8 4 4 13 14 12 16 21 17 15 13 11 14 16 9 7 6 7 6 5 8 7 4 2 -1 -1 -2 -3 -3 -4 -4 -5 -5 -5 -5 -5 -5 -5 -4 -3 -3 -2 -1 -1 -2 -3 -3 -3
12 11 8 7 16 28 34 24 21 23 18 17 20 17 18 12 9 9 6 6 6 6 13 13 7 6 5 3 -1 -2 -2 -3 -4 -4 -4 -4 -4 -5 -4 -4 -4 -4 -4 -3 -1 -1 -2 -3 -2 -4
17 17 19 28 31 30 42 33 23 21 19 19 16 15 14 12 16 12 10 8 6 9 12 10 9 7 4 3 3 -2 -1 -2 -3 -3 -3 -3 -4 -4 -4 -4 -3 -3 -3 -3 -3 -2 -2 -3 -2 -4
20 19 23 31 33 33 43 36 29 32 35 23 15 14 13 14 17 14 17 12 9 8 9 9 7 4 4 4 4 4 3 -1 -1 -3 -3 -3 -3 -3 -4 -3 -3 -3 -3 -2 -3 -2 -2 -4 -2 -3