ncols        80
nrows        80
xllcorner    130.22916666665316
yllcorner    32.76249999998684
cellsize     0.004166666667
NODATA_value -32767
-2 -3 -4 -5 -5 -5 -5 -5 -5 -5 -5 -5 -5 -3 -3 -2 -2 -2 -2 -1 -1 -4 -3 1 1 1 1 -2 -3 -3 -2 -2 -2 -2 -2 -1 -1 -1 -1 1 99991 99991 1 1 99992 99991 99991 99991 99991 99991 1 2 1 1 2 5 7 13 14 19 23 28 62 93 115 154 160 125 133 171 133 85 104 124 91 101 153 159 172 254
-3 -2 -4 -4 -5 -5 -5 -5 -5 -5 -5 -5 -5 -5 -5 -2 -2 -2 -2 -3 -2 -5 1 1 1 -2 -2 -2 -2 -3 -2 -3 -3 -2 -2 -2 -1 -1 -1 7 19 33 46 1 22 1 99991 99991 99991 99991 1 1 1 1 1 8 18 17 18 29 31 33 53 76 79 97 113 113 174 205 154 98 131 151 104 93 118 112 125 158
-3 -2 -3 -5 -5 -5 -5 -6 -6 -6 -7 -7 -7 -6 -5 -2 -2 -2 -2 -4 -2 -6 -3 -2 -3 -3 -2 -2 -2 -3 -3 -1 -2 -3 -2 -2 -1 -1 -1 7 22 39 57 64 6 2 99992 99992 99991 99991 99991 99991 1 4 12 5 7 10 15 31 42 48 50 53 98 109 81 81 143 198 209 154 162 151 94 82 98 114 126 147
-4 -3 -3 -3 -5 -5 -6 -6 -7 -8 -9 -9 -9 -8 -7 -5 -2 -2 -1 -3 -1 -1 -3 -3 -3 -3 -1 -1 -2 -2 -1 -3 -5 -3 -2 -2 -1 -1 -1 4 18 36 57 73 6 99991 99991 99991 1 99991 1 99991 3 16 42 18 6 7 8 18 22 22 35 75 146 125 57 80 130 176 203 146 123 109 85 91 139 172 173 160
-4 -3 -3 -3 -5 -5 -6 -6 -7 -8 -9 -9 -9 -8 -7 -5 -2 -2 -1 -3 -1 -1 -3 -3 -3 -3 -1 -1 -2 -2 -1 -3 -5 -3 -2 -2 -2 -1 -1 -1 9 21 31 36 25 99992 99992 1 7 7 12 28 40 47 75 44 12 13 15 13 14 24 62 102 98 59 42 92 127 150 107 78 72 83 90 90 109 145 162 149
-4 -4 -3 -3 -4 -4 -6 -6 -7 -8 -9 -9 -10 -10 -8 -5 -3 -3 -2 -2 -1 -1 -1 -1 -3 -3 -4 -1 -2 -2 -5 -5 -5 -2 -2 -2 -2 -2 -1 -1 -1 2 3 -1 6 99991 99991 3 15 16 37 64 72 72 90 50 17 16 18 16 19 22 22 27 28 30 46 63 101 154 140 92 67 72 83 80 99 134 170 126
-5 -5 -4 -3 -4 -4 -5 -5 -6 -8 -9 -9 -10 -10 -10 -5 -5 -5 -4 -4 -2 -2 -2 -2 -3 -3 -1 -1 -1 -1 -3 -5 -5 -2 -2 -2 -2 -2 -2 -2 -1 -1 -1 -1 -1 12 99992 99993 99991 1 8 27 34 42 60 65 29 11 11 12 17 15 17 26 38 43 68 137 191 182 134 87 67 81 89 91 82 112 134 106
-6 -6 -5 -4 -4 -4 -5 -5 -6 -7 -9 -9 -10 -10 -10 -9 -5 -5 -5 -5 -3 -2 -2 -2 -1 -1 -1 -1 -1 -1 -2 -5 -5 -2 -2 -2 -2 -2 -2 -2 -2 -1 -1 -1 -1 11 99992 99993 99992 99992 1 5 19 31 25 31 18 8 9 9 10 15 26 42 68 91 112 159 185 153 109 87 62 81 91 80 63 68 104 142
-10 -8 -6 -5 -5 -5 -5 -5 -6 -8 -9 -9 -10 -10 -10 -10 -7 -7 -5 -3 -3 -3 -2 -2 -2 -1 -1 -1 -2 -2 -4 -5 -5 -2 -2 -2 -2 -2 -2 -2 -2 -2 -2 -1 -1 9 99993 99995 99993 99992 1 4 10 7 3 4 6 7 8 8 12 18 28 43 99 181 187 180 164 125 91 74 67 89 68 58 67 84 108 142
-9 -9 -8 -6 -6 -6 -5 -5 -6 -7 -9 -9 -10 -11 -10 -10 -8 -8 -6 -5 -4 -2 -2 -2 -2 -2 -1 -2 -3 -3 -5 -5 -5 -4 -5 -5 -2 -2 -2 -2 -2 -2 -2 -2 -1 7 31 99993 99993 99991 2 3 3 4 4 5 7 8 10 11 14 22 34 76 149 201 157 155 156 100 71 61 62 62 55 63 72 103 160 169
-9 -9 -8 -6 -6 -6 -5 -5 -6 -7 -9 -9 -10 -11 -10 -10 -8 -8 -6 -5 -4 -2 -2 -2 -2 -2 -1 -2 -3 -3 -5 -5 -5 -4 -5 -5 -3 -3 -2 -2 -2 -1 -1 -2 -2 4 27 99993 99993 99992 1 3 3 3 4 7 10 13 11 14 17 29 61 146 172 139 114 151 177 141 86 55 66 71 78 87 85 87 102 126
-10 -10 -9 -7 -7 -7 -6 -6 -6 -7 -9 -9 -9 -10 -9 -10 -10 -10 -8 -6 -3 -2 -2 -2 -3 -3 -3 -3 -2 -2 -5 -5 -6 -5 -3 -3 -1 1 -3 -2 -2 -2 -2 -2 -2 1 22 3 34 3 4 2 2 2 3 6 9 13 14 14 16 27 64 141 138 97 80 78 113 138 95 63 81 91 93 77 82 89 89 85
-11 -10 -9 -8 -7 -7 -7 -6 -6 -8 -9 -9 -9 -10 -10 -10 -10 -10 -10 -8 -4 -3 -3 -3 -4 -4 -4 -4 -3 -3 -5 -5 -5 -5 -5 -5 -3 2 3 -3 -2 -2 -2 -2 -2 -1 2 3 2 3 5 2 1 1 4 6 7 8 10 13 16 20 33 61 141 144 100 78 70 82 76 57 82 89 77 86 85 93 101 90
-10 -10 -10 -9 -9 -9 -8 -7 -7 -8 -9 -9 -9 -10 -11 -10 -10 -10 -10 -9 -7 -6 -5 -5 -4 -5 -5 -4 -4 -4 -5 -5 -5 -5 -5 -5 -4 1 2 -1 -3 -3 -3 -3 -2 -2 1 2 2 3 2 2 3 4 6 10 11 12 13 16 23 28 35 54 108 186 169 117 83 66 62 51 63 72 68 77 85 91 98 95
-10 -10 -10 -10 -10 -10 -9 -8 -7 -7 -8 -8 -9 -10 -10 -10 -11 -11 -11 -10 -10 -8 -3 -3 -3 -5 -5 -4 -3 -3 -5 -4 -5 -5 -5 -5 -4 -4 2 -1 -4 -4 -4 -3 -2 -1 8 1 1 99991 1 3 5 6 6 12 19 26 25 26 31 34 37 54 109 205 222 173 103 76 80 64 45 67 82 83 80 92 91 91
-10 -10 -11 -11 -10 -10 -9 -8 -8 -7 -8 -8 -9 -10 -10 -10 -10 -10 -10 -10 -10 -11 -8 -8 -5 -5 -5 -5 -4 -4 -5 -5 -5 -5 -5 -5 -5 -5 -4 -4 -3 -3 -3 -3 -2 -2 5 3 3 1 1 3 7 10 11 20 26 45 61 63 62 39 44 72 146 269 306 215 143 108 82 74 47 67 70 79 82 93 84 75
-10 -10 -11 -11 -10 -10 -9 -8 -8 -7 -8 -8 -9 -10 -10 -10 -10 -10 -10 -10 -10 -11 -8 -8 -5 -5 -5 -5 -4 -4 -5 -5 -5 -5 -5 -5 -5 -5 -4 -4 -4 -3 -3 -3 -3 -1 2 6 4 99991 2 4 10 12 14 23 39 61 77 89 104 69 62 97 175 287 328 269 205 144 79 62 45 52 65 71 82 82 83 65
-10 -10 -10 -11 -10 -10 -10 -9 -8 -7 -8 -8 -9 -10 -10 -10 -10 -10 -11 -11 -11 -10 -10 -10 -5 -3 -5 -5 -5 -5 -5 -5 -5 -5 -5 -5 -5 -5 -5 -5 -4 -4 -2 -7 5 3 2 2 1 4 5 12 15 13 16 19 33 41 49 73 104 91 85 126 159 212 273 247 175 116 79 59 56 41 60 66 77 86 76 61
-10 -10 -10 -10 -10 -10 -10 -10 -10 -9 -8 -8 -9 -10 -10 -10 -10 -10 -10 -12 -12 -11 -13 -13 -5 -3 -4 -6 -5 -5 -5 -5 -5 -5 -6 -6 -6 -5 -4 -1 -4 -2 -1 5 2 99991 99991 2 2 2 4 15 20 14 17 20 22 31 52 73 70 61 68 98 121 165 189 135 109 77 62 39 35 41 73 83 79 76 59 64
-10 -10 -12 -11 -10 -10 -10 -10 -10 -10 -9 -9 -9 -10 -11 -11 -11 -11 -11 -12 -13 -12 -10 -10 -10 -7 -3 -4 -5 -5 -6 -6 -5 -6 -7 -7 -7 -6 -5 -1 -3 -1 -1 2 2 99992 99991 1 1 1 2 6 8 10 16 23 25 24 29 33 42 58 49 43 63 103 109 83 52 37 38 40 57 70 79 63 60 53 50 44
-10 -12 -15 -12 -11 -11 -10 -11 -11 -10 -10 -10 -10 -10 -10 -11 -11 -11 -11 -11 -12 -12 -11 -11 -11 -10 -5 -4 -5 -5 -6 -6 -5 -6 -7 -7 -10 -9 -5 -6 -1 -1 -1 1 99998 999912 4 2 1 1 2 99991 99991 3 6 9 24 30 32 41 44 50 49 37 50 51 53 45 36 54 54 61 54 73 77 63 70 66 72 60
-10 -12 -14 -13 -13 -13 -11 -11 -13 -12 -10 -10 -10 -10 -10 -11 -11 -11 -11 -11 -12 -13 -14 -14 -15 -15 -10 -5 -4 -4 -6 -6 -6 -7 -9 -9 -10 -10 -5 -5 -2 6 7 4 4 4 6 5 3 2 3 3 3 4 4 7 16 20 34 38 41 50 42 30 26 30 36 38 58 74 82 84 90 93 79 69 76 68 71 71
-10 -12 -14 -13 -13 -13 -11 -11 -13 -12 -10 -10 -10 -10 -10 -11 -11 -11 -11 -11 -12 -13 -14 -14 -15 -15 -10 -5 -4 -4 -6 -6 -6 -7 -9 -9 -10 -10 -5 -5 -3 -2 -4 -7 -18 1 2 15 4 3 6 9 16 16 23 18 9 11 24 26 21 26 23 19 30 48 36 46 78 109 125 145 174 162 107 85 84 74 75 74
-10 -14 -18 -18 -15 -15 -11 -10 -12 -12 -11 -11 -11 -11 -11 -12 -11 -11 -12 -12 -14 -15 -17 -17 -19 -20 -14 -6 -4 -4 -6 -8 -7 -8 -10 -10 -11 -10 -6 -5 -2 -2 -3 -7 -16 -31 3 2 1 3 6 21 56 48 48 38 23 20 17 23 16 20 33 39 52 51 63 88 106 151 176 216 247 205 146 103 79 75 79 79
-10 -18 -20 -20 -14 -14 -11 -10 -10 -10 -10 -10 -11 -11 -12 -12 -12 -12 -12 -12 -13 -15 -18 -18 -19 -20 -15 -7 -5 -5 -6 -7 -8 -9 -10 -10 -12 -10 -10 -10 -1 -2 -2 -1 -10 -22 -36 -1 1 5 15 28 44 42 39 38 26 31 38 43 36 42 49 51 51 64 89 123 160 203 244 293 307 254 190 129 95 89 80 83
-10 -18 -20 -20 -18 -18 -14 -11 -10 -9 -10 -10 -11 -12 -14 -13 -12 -12 -12 -11 -12 -14 -16 -16 -19 -20 -18 -15 -8 -8 -5 -7 -9 -10 -10 -10 -10 -10 -10 -8 -5 -5 -2 -1 -1 -9 -13 -2 1 7 20 22 23 19 22 28 29 34 38 45 45 47 51 46 54 87 148 177 206 260 313 387 361 274 209 153 112 88 70 63
-9 -15 -19 -20 -19 -19 -15 -11 -8 -7 -10 -10 -10 -12 -14 -13 -12 -12 -12 -12 -11 -12 -15 -15 -18 -21 -22 -18 -11 -11 -6 -8 -9 -10 -10 -10 -10 -12 -11 -7 -4 -4 -2 -1 -1 -1 -6 -9 -1 4 14 10 10 12 16 23 26 29 32 36 41 41 43 42 61 110 198 239 257 298 371 438 393 317 239 174 127 107 117 96
-9 -13 -19 -23 -22 -22 -15 -10 -9 -8 -10 -10 -10 -10 -11 -12 -14 -14 -13 -11 -11 -11 -12 -12 -17 -21 -22 -20 -18 -18 -10 -8 -9 -10 -10 -10 -11 -12 -11 -9 -6 -6 -3 -1 -1 -1 -1 -10 -9 5 9 9 22 27 23 27 23 22 28 36 36 30 30 37 52 85 131 169 204 243 307 411 393 319 252 184 140 113 133 114
-9 -13 -19 -23 -22 -22 -15 -10 -9 -8 -10 -10 -10 -10 -11 -12 -14 -14 -13 -11 -11 -11 -12 -12 -17 -21 -22 -20 -18 -18 -10 -8 -9 -10 -10 -10 -11 -12 -11 -9 -6 -6 -3 -1 -1 -1 -1 -12 -9 6 9 10 16 14 15 17 19 25 33 34 26 24 32 39 46 62 84 117 147 206 284 370 423 362 262 181 126 89 104 91
-9 -12 -18 -20 -20 -20 -17 -13 -9 -8 -10 -10 -10 -10 -10 -11 -13 -13 -13 -12 -11 -10 -10 -10 -13 -18 -20 -18 -18 -18 -13 -7 -10 -10 -10 -10 -12 -12 -10 -10 -8 -8 -2 -1 -1 -1 -1 -6 1 6 11 7 8 15 21 26 28 32 32 25 21 31 38 38 45 53 65 87 109 153 201 259 337 340 301 217 132 78 61 49
-10 -10 -16 -20 -20 -20 -20 -16 -10 -10 -10 -10 -9 -7 -9 -10 -12 -12 -15 -14 -11 -11 -10 -10 -10 -12 -20 -19 -19 -19 -20 -10 -10 -10 -10 -10 -12 -12 -11 -10 -8 -8 -4 -1 -1 -1 -1 -1 -3 5 12 7 9 15 17 25 29 27 22 15 23 30 32 29 35 42 51 68 87 109 156 207 247 307 324 232 140 84 54 39
-7 -9 -12 -18 -21 -21 -21 -18 -15 -12 -10 -10 -10 -6 -6 -9 -12 -12 -14 -14 -13 -12 -12 -12 -12 -13 -19 -20 -19 -19 -20 -10 -10 -10 -10 -10 -11 -12 -12 -11 -9 -9 -5 -2 -1 -2 -1 -1 -2 3 9 5 4 9 16 26 30 21 12 14 19 20 31 36 44 46 59 77 93 123 170 225 246 273 282 251 187 110 56 38
-8 -7 -8 -14 -21 -21 -21 -19 -20 -18 -10 -10 -10 -6 -5 -9 -10 -10 -12 -13 -14 -13 -13 -13 -13 -14 -13 -19 -20 -20 -20 -17 -12 -10 -10 -10 -11 -12 -12 -11 -9 -9 -6 -5 -3 -4 -2 -2 -2 4 7 4 4 15 21 28 24 10 11 14 19 27 34 34 36 38 59 104 142 160 160 183 194 185 221 234 194 100 50 30
-4 -6 -8 -13 -17 -17 -18 -20 -20 -20 -19 -19 -14 -10 -11 -10 -10 -10 -12 -14 -14 -14 -14 -14 -14 -14 -13 -18 -20 -20 -25 -22 -12 -10 -10 -10 -11 -12 -11 -10 -10 -10 -9 -6 -5 -3 -3 -3 -2 2 4 99991 4 12 19 23 20 7 16 26 27 29 30 27 31 34 45 89 151 174 152 118 125 131 169 171 165 94 45 22
-4 -6 -8 -13 -17 -17 -18 -20 -20 -20 -19 -19 -14 -10 -11 -10 -10 -10 -12 -14 -14 -14 -14 -14 -14 -14 -13 -18 -20 -20 -25 -22 -12 -10 -10 -10 -11 -12 -11 -10 -10 -10 -9 -6 -5 -3 -3 -3 -3 -1 2 99992 9 17 21 17 16 5 13 21 21 21 24 31 34 32 30 69 115 132 132 88 74 69 87 106 120 89 37 19
-5 -6 -8 -11 -13 -13 -15 -17 -20 -20 -20 -20 -17 -15 -17 -15 -14 -14 -14 -15 -16 -16 -16 -16 -16 -16 -17 -19 -20 -20 -22 -19 -18 -13 -10 -10 -11 -11 -11 -10 -10 -10 -10 -10 -6 -3 -2 -2 -1 -1 2 99991 8 18 19 13 13 4 11 19 15 21 29 27 28 30 28 41 63 60 62 50 50 42 39 52 68 58 33 17
-5 -6 -7 -9 -11 -11 -11 -11 -15 -16 -17 -17 -18 -18 -18 -19 -20 -20 -19 -18 -18 -17 -17 -17 -17 -19 -19 -20 -20 -20 -20 -20 -23 -23 -21 -14 -13 -12 -12 -10 -10 -10 -10 -9 -5 -3 -1 -1 -1 -1 2 99991 2 6 10 9 8 3 10 17 11 22 21 18 23 22 21 25 28 36 40 37 40 30 23 28 34 35 34 15
-5 -5 -6 -8 -10 -10 -10 -10 -11 -13 -17 -17 -19 -20 -21 -21 -20 -20 -19 -19 -19 -19 -19 -19 -19 -20 -21 -20 -20 -20 -17 -16 -17 -21 -21 -20 -12 -12 -12 -11 -10 -10 -9 -6 -5 -3 -1 -1 -1 1 10 1 2 7 8 10 5 4 10 8 10 19 19 19 23 22 15 18 26 30 31 32 28 19 15 22 27 25 21 15
-5 -6 -7 -8 -10 -10 -10 -10 -10 -12 -15 -15 -19 -21 -21 -20 -19 -19 -16 -15 -18 -19 -20 -20 -20 -20 -21 -22 -21 -21 -20 -19 -18 -17 -15 -15 -13 -13 -12 -12 -11 -11 -10 -10 -9 -7 -2 -2 -1 3 10 4 2 2 3 2 2 4 7 7 13 16 15 13 14 9 9 15 19 19 19 19 20 16 11 16 17 17 14 8
-5 -6 -8 -9 -10 -10 -11 -10 -10 -10 -11 -11 -15 -17 -19 -20 -19 -19 -16 -12 -14 -19 -20 -20 -20 -20 -23 -26 -24 -24 -21 -20 -19 -18 -17 -17 -15 -15 -14 -13 -11 -11 -11 -11 -10 -9 -6 -6 -5 3 9 2 3 3 99991 1 2 2 1 8 12 11 12 6 6 5 11 12 14 14 17 17 17 15 9 13 15 15 12 8
-5 -6 -8 -9 -10 -10 -11 -10 -10 -10 -11 -11 -15 -17 -19 -20 -19 -19 -16 -12 -14 -19 -20 -20 -20 -20 -23 -26 -24 -24 -21 -20 -33 -18 -17 -17 -17 -17 -18 -22 -11 -11 -11 -11 -10 -9 -6 -6 -5 -5 5 2 5 1 99991 1 2 5 5 5 9 12 7 1 3 9 12 9 10 13 15 14 13 12 7 8 11 8 7 7
-6 -7 -10 -10 -10 -10 -10 -10 -10 -9 -9 -9 -11 -13 -16 -20 -20 -20 -20 -25 -19 -20 -20 -20 -21 -22 -24 -25 -25 -25 -23 -21 -26 -34 -19 -19 -19 -20 -15 -14 -20 -11 -10 -13 -11 -10 -10 -10 -8 -7 -5 -1 3 2 3 1 1 7 10 10 6 3 99991 1 3 6 6 7 10 11 12 12 9 5 3 2 2 3 2 1
-6 -8 -10 -10 -11 -11 -11 -11 -11 -9 -9 -9 -10 -11 -14 -18 -19 -19 -20 -21 -22 -22 -22 -22 -24 -25 -26 -25 -26 -26 -25 -23 -26 -34 -20 -20 -20 -20 -19 -16 -20 -12 -10 -10 -10 -10 -10 -10 -10 -8 -5 -5 1 7 8 4 -1 2 3 2 -1 -1 2 9 8 9 10 11 12 13 11 4 99991 99991 1 3 1 1 99993 1
-6 -8 -10 -10 -10 -10 -10 -11 -11 -10 -10 -10 -10 -11 -15 -17 -18 -18 -20 -20 -25 -24 -23 -23 -24 -27 -27 -26 -26 -26 -26 -25 -26 -26 -33 -23 -22 -23 -21 -18 -17 -17 -13 -10 -11 -10 -11 -11 -11 -9 -7 -5 -1 4 3 -8 -27 1 -1 -1 -1 1 8 11 12 12 11 12 12 10 5 99991 99993 99991 1 3 1 1 1 2
-7 -8 -9 -9 -10 -10 -10 -10 -10 -10 -10 -10 -10 -11 -15 -17 -20 -20 -20 -21 -22 -23 -23 -23 -25 -27 -27 -28 -28 -28 -27 -27 -29 -33 -33 -33 -26 -24 -23 -20 -19 -19 -19 -19 -19 -12 -12 -12 -12 -10 -10 -7 -3 -1 1 -7 -23 -40 3 2 -2 -1 -1 3 7 11 12 13 11 8 2 99992 99992 99991 1 99991 99991 1 99991 1
-7 -7 -7 -8 -9 -9 -10 -10 -11 -12 -11 -11 -12 -14 -15 -20 -20 -20 -18 -23 -21 -21 -22 -22 -24 -26 -26 -27 -28 -28 -28 -28 -30 -31 -29 -33 -28 -26 -26 -22 -20 -20 -18 -15 -19 -16 -14 -14 -12 -10 -10 -10 -7 -5 -2 -7 -14 -24 -36 2 2 1 -1 -1 -1 1 2 5 5 4 2 2 3 1 1 9999117 99991 99991 99991 99991
-7 -7 -7 -8 -9 -9 -10 -10 -11 -12 -11 -11 -12 -14 -15 -20 -20 -20 -18 -23 -21 -21 -22 -22 -24 -26 -26 -27 -28 -28 -28 -28 -30 -31 -29 -29 -34 -26 -26 -22 -20 -20 -18 -15 -14 -18 -22 -14 -12 -10 -10 -10 -10 -10 -5 -5 -5 -5 -12 -19 -29 1 -1 -1 -1 -1 -2 -3 -2 1 1 2 3 1 99991 2 1 99991 99991 99991
-6 -7 -7 -6 -7 -7 -9 -9 -10 -10 -10 -10 -11 -13 -13 -17 -17 -17 -12 -12 -17 -20 -20 -20 -21 -23 -24 -25 -26 -26 -27 -30 -35 -31 -30 -30 -34 -30 -25 -22 -20 -20 -18 -15 -15 -17 -22 -19 -18 -13 -14 -11 -10 -10 -10 -7 -6 -5 -2 4 -12 -23 4 -1 -1 -1 -1 -2 -2 -2 -1 1 2 2 9999111 1 2 1 99991 99991
-5 -7 -7 -7 -7 -7 -8 -8 -8 -9 -9 -9 -9 -9 -9 -9 -8 -8 -8 -9 -13 -18 -20 -20 -20 -21 -21 -23 -24 -24 -27 -30 -34 -32 -32 -32 -33 -31 -30 -23 -20 -20 -18 -16 -17 -19 -20 -20 -18 -15 -13 -12 -10 -10 -10 -10 -9 -7 -5 -5 -5 -1 -18 -28 -13 -2 -2 -1 -1 -1 -2 -1 -1 -1 1 1 99991 99991 99991 99991
-5 -6 -6 -6 -6 -6 -6 -6 -6 -6 -7 -7 -6 -6 -6 -6 -5 -5 -5 -7 -10 -13 -17 -17 -18 -18 -19 -21 -23 -23 -27 -30 -36 -35 -33 -33 -32 -33 -32 -35 -24 -24 -19 -19 -19 -20 -19 -19 -15 -16 -14 -12 -11 -11 -11 -10 -9 -8 -6 -6 -5 -2 -1 -6 11 38 60 -2 -1 -2 -2 -1 -1 -93 1 1 99991 99991 99991 99991
-5 -5 -5 -6 -6 -6 -6 -5 -5 -4 -4 -4 -5 -5 -5 -5 -4 -4 -5 -5 -8 -11 -11 -11 -12 -14 -17 -20 -21 -21 -22 -26 -29 -32 -34 -34 -34 -34 -32 -31 -27 -29 -23 -22 -21 -21 -20 -18 -18 -16 -15 -13 -13 -13 -13 -11 -10 -9 -7 -7 -5 -5 -2 3 19 38 50 33 5 -2 -2 -1 -72 -1 -1 -1 1 6 12 13
-5 -5 -5 -5 -5 -5 -5 -4 -4 -2 -1 -1 -3 -5 -5 -5 -5 -4 -4 -5 -6 -7 -8 -8 -10 -11 -14 -18 -19 -19 -20 -21 -23 -28 -32 -32 -33 -34 -33 -30 -28 -28 -30 -30 -32 -22 -20 -20 -18 -17 -15 -14 -13 -13 -12 -12 -11 -11 -9 -9 -7 -5 -5 5 16 29 38 26 6 -4 -1 -31 -1 -1 -1 -2 -1 -1 3 20
-5 -5 -5 -5 -5 -5 -5 -4 -4 -2 -1 1 7 7 10 8 7 1 2 2 -6 -7 -8 -8 -10 -11 -14 -18 -19 -19 -20 -21 -23 -28 -32 -32 -33 -34 -33 -30 -28 -28 -30 -30 -32 -22 -20 -20 -18 -17 -15 -14 -13 -13 -12 -12 -11 -11 -9 -9 -7 -5 -5 -2 7 14 17 14 8 -1 -1 -12 -1 -1 -2 -1 -1 -1 1 1
-1 1 5 8 9 9 3 4 6 6 7 9 12 13 16 15 15 12 9 6 3 -2 -5 -5 -7 -9 -11 -12 -15 -15 -18 -19 -22 -25 -29 -29 -30 -32 -34 -34 -31 -31 -30 -30 -30 -23 -23 -23 -18 -18 -16 -18 -14 -14 -13 -13 -12 -11 -10 -10 -9 -6 -5 -5 -5 -5 -1 4 8 11 15 -1 -1 -2 -1 -2 -2 -1 -1 -2
3 3 7 11 17 18 10 7 9 9 11 14 18 17 20 20 17 16 19 16 11 5 -5 -5 -5 -5 -8 -10 -13 -13 -17 -19 -21 -24 -27 -27 -28 -30 -32 -33 -33 -33 -34 -29 -26 -30 -34 -22 -18 -19 -18 -17 -18 -16 -15 -13 -12 -12 -11 -11 -10 -8 -7 -5 -5 -5 -2 -1 5 10 12 -2 -2 -3 -1 -1 -3 -2 -1 -1
7 7 9 15 20 27 22 22 19 25 27 22 25 24 24 25 24 26 25 19 11 10 8 -1 -6 -5 -5 -7 -10 -10 -17 -20 -20 -22 -24 -24 -26 -30 -32 -34 -33 -33 -32 -29 -26 -34 -34 -23 -27 -20 -19 -18 -17 -17 -16 -15 -14 -13 -12 -12 -10 -10 -9 -6 -5 -5 -5 -1 1 4 5 -4 -3 -2 -2 -2 -2 -1 -2 -1
14 19 25 29 29 38 36 45 39 34 43 40 36 38 35 33 33 34 29 22 21 20 13 8 7 -3 -5 -5 -9 -9 -14 -19 -20 -21 -23 -23 -27 -31 -34 -36 -33 -33 -33 -29 -25 -24 -24 -33 -28 -21 -20 -20 -17 -18 -17 -17 -16 -15 -14 -14 -11 -10 -8 -6 -5 -5 -5 -3 -2 -2 -2 -4 -2 -3 -2 -2 -3 -3 -2 -2
24 34 46 48 45 53 57 66 55 49 62 55 52 56 46 43 43 43 35 32 31 25 19 11 12 11 7 -5 -10 -10 -11 -16 -20 -21 -27 -27 -29 -32 -32 -34 -32 -35 -33 -29 -26 -25 -25 -25 -26 -22 -21 -20 -19 -19 -17 -17 -17 -15 -15 -15 -12 -10 -9 -8 -8 -8 -2 -4 -3 -1 -1 -4 -4 -3 -4 -4 -3 -3 -4 -2
45 48 58 71 62 59 79 90 78 74 84 69 74 71 61 55 55 57 47 45 40 33 23 16 16 17 11 -5 -10 -10 -11 -16 -20 -21 -27 -27 -29 -32 -32 -34 -32 -36 -33 -29 -26 -25 -25 -25 -29 -26 -21 -20 -19 -19 -18 -17 -19 -15 -15 -15 -12 -10 -9 -8 -8 -8 -2 -4 -3 -1 -2 -4 -3 -3 -5 -4 -5 -4 -2 -2
74 70 79 87 87 82 83 115 108 103 109 93 91 93 82 68 72 68 60 60 57 45 32 25 25 22 14 3 -7 -7 -8 -15 -19 -23 -29 -29 -29 -31 -32 -32 -35 -35 -32 -31 -29 -27 -27 -27 -26 -24 -22 -21 -21 -21 -20 -20 -20 -16 -15 -15 -14 -11 -10 -10 -8 -8 -4 -5 -5 -5 -1 -3 -1 -2 -2 -3 -5 -5 -5 -3
94 106 98 108 111 97 100 126 138 139 130 111 110 116 98 85 87 83 80 76 69 56 45 33 30 24 19 12 -5 -5 -7 -12 -16 -21 -26 -26 -30 -30 -32 -35 -38 -35 -33 -32 -31 -29 -28 -28 -27 -25 -23 -21 -20 -24 -20 -20 -18 -18 -17 -17 -16 -14 -12 -11 -8 -8 -6 -6 -6 -5 -5 -5 -1 -1 -1 -2 -3 -2 -2 -3
111 135 127 135 133 122 116 138 165 167 154 139 137 137 111 102 105 102 100 92 82 69 52 43 38 30 22 15 2 -5 -7 -11 -16 -21 -25 -25 -31 -31 -34 -36 -38 -35 -35 -34 -33 -31 -29 -29 -28 -25 -24 -22 -20 -24 -20 -20 -20 -19 -19 -19 -17 -16 -14 -11 -9 -9 -7 -7 -6 -6 -5 -5 -3 -2 -2 -1 -2 -1 -2 -3
128 162 163 165 162 154 135 162 190 191 184 174 159 158 128 126 130 126 121 108 94 73 61 56 46 36 28 17 8 -5 -7 -12 -17 -19 -21 -21 -25 -31 -38 -37 -41 -38 -33 -33 -34 -34 -30 -32 -29 -26 -24 -22 -20 -22 -24 -21 -20 -20 -20 -20 -20 -19 -16 -12 -9 -9 -8 -8 -8 -7 -5 -5 -5 -5 -3 -2 -2 -2 -1 1
158 193 201 205 196 179 151 184 220 223 224 198 187 175 148 149 152 149 139 126 107 89 73 70 59 46 37 24 13 -5 -6 -10 -14 -18 -20 -20 -24 -30 -35 -37 -41 -40 -38 -38 -36 -37 -34 -30 -29 -29 -25 -24 -20 -20 -20 -20 -22 -22 -22 -22 -21 -20 -17 -12 -10 -10 -9 -8 -8 -7 -6 -6 -5 -5 -5 -5 -4 -4 -2 -2
174 219 239 243 241 220 171 210 246 252 248 217 220 179 171 175 177 170 159 140 121 101 93 88 76 64 46 31 18 8 -6 -10 -14 -18 -20 -20 -24 -30 -35 -37 -45 -41 -38 -38 -40 -40 -33 -27 -32 -30 -25 -26 -24 -20 -20 -26 -26 -28 -28 -24 -25 -20 -17 -12 -10 -10 -9 -8 -8 -7 -6 -6 -5 -5 -5 -5 -4 -4 -2 -2
176 227 264 278 277 260 204 209 263 285 258 256 224 201 197 201 202 195 178 158 139 116 114 107 95 76 56 38 21 9 2 -7 -10 -19 -20 -20 -26 -29 -33 -37 -46 -41 -39 -39 -42 -39 -37 -33 -34 -32 -28 -29 -26 -20 -20 -27 -29 -30 -30 -24 -23 -23 -18 -15 -11 -11 -10 -9 -8 -7 -6 -6 -6 -5 -5 -5 -4 -4 -3 -2
223 223 263 307 308 280 239 248 280 312 289 283 228 244 228 227 229 221 202 182 157 142 137 125 106 83 63 43 28 19 11 -5 -10 -20 -20 -20 -24 -30 -33 -41 -42 -44 -43 -43 -41 -40 -41 -37 -36 -30 -29 -27 -26 -21 -21 -25 -26 -29 -29 -29 -28 -25 -19 -16 -13 -13 -10 -9 -8 -8 -7 -7 -6 -5 -5 -5 -5 -5 -3 -2
285 286 310 337 341 340 358 322 338 337 338 296 263 288 267 252 258 249 230 205 176 165 150 133 111 92 72 52 37 23 11 -6 -12 -20 -21 -21 -22 -34 -40 -41 -42 -42 -44 -44 -41 -41 -44 -41 -43 -42 -37 -28 -26 -23 -31 -27 -28 -29 -29 -28 -29 -25 -19 -18 -15 -15 -12 -10 -8 -7 -7 -7 -6 -5 -5 -5 -5 -5 -4 -2
296 330 364 384 389 425 454 407 398 370 364 318 322 340 320 286 292 276 246 213 194 178 164 148 126 103 80 60 42 25 12 6 -5 -10 -21 -21 -19 -23 -27 -32 -43 -43 -44 -44 -43 -45 -43 -41 -42 -42 -36 -26 -25 -26 -24 -25 -25 -32 -32 -29 -29 -25 -20 -19 -15 -15 -12 -10 -9 -8 -7 -7 -7 -6 -5 -5 -5 -5 -4 -3
329 341 408 448 459 489 480 453 440 417 412 354 366 386 344 326 326 292 257 237 222 201 180 156 134 99 81 61 43 28 17 9 4 -7 -15 -15 -18 -17 -20 -26 -42 -42 -43 -43 -44 -44 -44 -42 -44 -43 -42 -37 -29 -25 -27 -30 -36 -35 -35 -30 -31 -27 -21 -19 -16 -16 -13 -11 -10 -8 -7 -7 -6 -6 -5 -5 -5 -5 -5 -5
408 406 429 520 565 592 539 508 476 494 502 435 452 432 362 370 356 317 284 264 240 212 187 171 156 98 92 74 47 39 27 15 10 6 -15 -15 -18 -17 -20 -26 -33 -39 -43 -43 -47 -46 -44 -50 -46 -44 -43 -40 -32 -34 -33 -32 -37 -34 -34 -31 -31 -28 -21 -19 -16 -16 -13 -11 -10 -8 -7 -7 -6 -6 -5 -5 -5 -5 -5 -5
466 533 507 553 677 724 612 564 536 561 592 572 545 438 399 416 392 342 309 281 254 234 234 218 188 141 143 105 68 58 38 27 17 7 -5 -5 -7 -8 -14 -23 -29 -39 -43 -43 -47 -46 -44 -50 -46 -44 -43 -40 -32 -34 -33 -32 -37 -34 -34 -31 -31 -28 -23 -20 -17 -17 -14 -11 -10 -8 -7 -7 -7 -6 -5 -5 -5 -5 -5 -5
447 518 515 585 708 784 697 626 603 609 660 634 489 454 512 512 419 369 343 308 298 286 263 235 195 172 139 105 82 66 49 34 21 9 -1 -5 -5 -5 -12 -21 -25 -41 -42 -42 -47 -47 -47 -49 -47 -47 -41 -43 -38 -38 -36 -36 -38 -36 -36 -31 -29 -28 -22 -20 -17 -17 -13 -11 -10 -8 -8 -8 -7 -6 -6 -5 -5 -5 -5 -5
266 352 423 471 559 672 707 666 667 665 709 606 535 536 631 534 438 432 433 379 332 292 257 216 196 164 144 115 94 74 53 34 21 11 3 -4 -5 -5 -11 -21 -21 -42 -42 -42 -47 -49 -49 -49 -48 -46 -44 -45 -41 -40 -38 -37 -39 -38 -38 -32 -33 -29 -23 -20 -16 -16 -14 -11 -9 -9 -8 -8 -8 -7 -6 -6 -6 -6 -5 -5
283 326 424 512 541 589 640 641 641 644 645 607 572 554 609 534 499 500 507 479 412 328 249 212 197 189 180 165 128 90 59 34 18 9 5 -2 -5 -5 -20 -31 -20 -44 -50 -50 -39 -51 -49 -49 -49 -48 -46 -45 -42 -42 -40 -38 -38 -39 -39 -33 -34 -26 -23 -20 -16 -16 -13 -11 -10 -9 -9 -9 -9 -8 -7 -6 -6 -6 -6 -5
428 399 445 546 622 660 746 760 741 708 677 626 592 589 639 589 589 619 581 500 451 359 271 246 248 299 319 266 180 116 76 42 18 8 8 5 -5 -7 -10 -12 -20 -44 -53 -53 -46 -49 -50 -47 -50 -46 -44 -46 -43 -39 -42 -39 -39 -39 -39 -34 -34 -30 -23 -20 -17 -17 -14 -11 -11 -10 -10 -10 -9 -8 -8 -7 -6 -6 -6 -6
425 485 515 612 684 720 850 931 851 808 738 704 662 681 718 680 700 711 644 593 602 485 353 309 342 509 527 406 254 160 107 59 24 11 6 1 -2 -7 -10 -12 -20 -41 -45 -45 -46 -46 -50 -50 -51 -47 -45 -47 -44 -42 -44 -41 -41 -41 -41 -39 -35 -32 -23 -20 -17 -17 -14 -11 -11 -10 -10 -10 -9 -8 -8 -7 -6 -6 -6 -6
405 489 522 572 643 702 783 889 924 851 767 775 742 800 811 798 808 784 792 737 656 540 478 419 397 606 662 473 318 215 116 57 26 15 9 3 -1 -5 -7 -10 -20 -41 -44 -44 -50 -46 -50 -51 -51 -47 -47 -47 -45 -47 -45 -43 -43 -41 -41 -41 -36 -33 -25 -21 -18 -18 -16 -13 -12 -11 -10 -10 -9 -8 -8 -6 -6 -6 -6 -6
352 429 471 506 565 675 767 777 858 902 838 846 855 954 994 976 990 986 929 787 659 575 549 532 460 529 626 545 336 192 82 34 21 13 5 6 -1 -1 -4 -5 -26 -26 -43 -43 -52 -50 -52 -50 -52 -51 -47 -46 -46 -45 -47 -43 -44 -43 -43 -38 -37 -33 -25 -21 -18 -18 -16 -14 -12 -11 -10 -10 -10 -9 -8 -7 -7 -7 -6 -5
340 412 475 528 590 642 661 617 743 813 834 886 975 1145 1211 1216 1264 1211 1025 838 727 598 493 468 505 540 618 448 246 147 70 36 15 8 5 1 -1 -1 -2 -5 -10 -10 -23 -41 -52 -54 -54 -53 -52 -45 -45 -45 -47 -47 -46 -43 -45 -44 -44 -39 -39 -34 -26 -21 -18 -18 -16 -15 -13 -12 -11 -11 -10 -9 -8 -7 -7 -7 -6 -5